# .PCD v0.7 - Point Cloud Data file format
VERSION 0.7
FIELDS x y z
SIZE 4 4 4
TYPE F F F
COUNT 1 1 1
WIDTH 1648
HEIGHT 1
VIEWPOINT 0 0 0 1 0 0 0
POINTS 1648
DATA ascii
2.633000 0.416000 -1.065000
2.648000 0.417000 -1.062000
2.836000 0.662000 -0.762000
2.835000 1.011000 -0.644000
2.816000 0.997000 -0.633000
2.824000 0.992000 -0.628000
2.847000 0.993000 -0.627000
2.864000 0.992000 -0.624000
2.895000 0.995000 -0.624000
2.890000 0.986000 -0.617000
2.894000 0.980000 -0.611000
2.900000 0.975000 -0.606000
2.901000 0.967000 -0.600000
2.899000 0.959000 -0.593000
2.907000 0.954000 -0.589000
2.793000 0.570000 -0.868000
2.897000 0.819000 -0.651000
2.906000 0.698000 -0.770000
3.027000 0.735000 -0.809000
2.804000 0.987000 -0.545000
2.830000 1.005000 -0.554000
2.874000 1.030000 -0.566000
2.889000 1.044000 -0.572000
2.818000 1.037000 -0.564000
2.771000 1.037000 -0.561000
2.811000 1.062000 -0.572000
2.843000 1.083000 -0.582000
2.858000 1.098000 -0.588000
2.863000 1.109000 -0.592000
2.863000 1.118000 -0.595000
2.862000 1.127000 -0.597000
2.852000 1.132000 -0.598000
2.805000 1.132000 -0.594000
2.690000 0.466000 -0.994000
2.694000 0.464000 -0.987000
2.573000 0.376000 -1.100000
2.511000 0.372000 -1.081000
2.496000 0.374000 -1.082000
2.501000 0.379000 -1.092000
2.513000 0.385000 -1.104000
2.540000 0.393000 -1.124000
2.882000 0.609000 -0.871000
2.778000 1.069000 -0.613000
2.782000 1.063000 -0.608000
2.792000 1.060000 -0.604000
2.809000 1.059000 -0.602000
2.791000 1.045000 -0.592000
2.746000 1.021000 -0.576000
2.755000 1.017000 -0.572000
2.759000 1.012000 -0.567000
2.770000 1.008000 -0.564000
2.788000 1.007000 -0.561000
2.850000 1.014000 -0.562000
2.813000 0.993000 -0.549000
2.846000 0.997000 -0.549000
2.944000 0.850000 -0.645000
2.916000 0.850000 -0.644000
2.910000 0.857000 -0.648000
2.883000 0.944000 -0.693000
2.806000 0.936000 -0.683000
2.799000 0.942000 -0.686000
2.858000 0.618000 -0.832000
2.731000 0.500000 -0.940000
2.791000 0.931000 -0.692000
2.872000 0.945000 -0.698000
2.912000 0.873000 -0.624000
2.881000 1.078000 -0.518000
2.870000 1.083000 -0.519000
2.866000 1.091000 -0.520000
2.740000 0.508000 -0.934000
2.851000 0.526000 -0.963000
2.728000 0.424000 -1.089000
2.643000 0.415000 -1.062000
2.702000 0.429000 -1.094000
2.880000 0.638000 -0.824000
2.803000 1.132000 -0.580000
2.812000 1.128000 -0.576000
2.832000 1.129000 -0.575000
2.822000 1.117000 -0.567000
2.791000 1.097000 -0.555000
2.776000 1.084000 -0.546000
2.772000 1.075000 -0.540000
2.775000 1.068000 -0.535000
2.793000 1.068000 -0.533000
2.820000 1.070000 -0.532000
2.837000 1.069000 -0.530000
2.848000 1.065000 -0.526000
2.842000 1.055000 -0.519000
2.801000 0.950000 -0.626000
2.813000 0.963000 -0.633000
2.856000 0.987000 -0.646000
2.513000 0.387000 -1.125000
2.516000 0.387000 -1.118000
2.507000 0.384000 -1.106000
2.512000 0.384000 -1.100000
2.526000 0.385000 -1.097000
2.522000 0.383000 -1.087000
2.519000 0.381000 -1.077000
2.536000 0.382000 -1.076000
2.906000 0.669000 -0.813000
2.849000 0.650000 -0.789000
2.791000 0.943000 -0.626000
2.887000 0.932000 -0.608000
2.906000 0.931000 -0.606000
2.908000 0.924000 -0.600000
2.911000 0.917000 -0.594000
2.768000 0.539000 -0.902000
2.666000 0.438000 -1.021000
2.727000 0.453000 -1.051000
2.943000 0.681000 -0.812000
2.891000 0.965000 -0.590000
2.908000 0.989000 -0.602000
2.900000 0.996000 -0.604000
2.894000 1.003000 -0.606000
2.841000 1.002000 -0.602000
2.836000 1.010000 -0.605000
2.836000 1.019000 -0.608000
2.759000 1.009000 -0.599000
2.762000 1.018000 -0.603000
2.791000 1.047000 -0.615000
2.774000 1.049000 -0.615000
2.776000 1.059000 -0.619000
2.767000 1.064000 -0.620000
2.757000 1.069000 -0.621000
2.640000 0.429000 -1.037000
2.655000 0.429000 -1.035000
2.839000 1.044000 -0.520000
2.835000 1.052000 -0.523000
2.849000 1.067000 -0.528000
2.847000 1.075000 -0.531000
2.841000 1.082000 -0.532000
2.823000 1.085000 -0.531000
2.794000 1.082000 -0.529000
2.781000 1.087000 -0.529000
2.778000 0.510000 -0.974000
2.728000 0.498000 -0.948000
2.865000 0.631000 -0.831000
2.802000 1.135000 -0.600000
2.841000 1.136000 -0.596000
2.839000 1.127000 -0.590000
2.842000 1.121000 -0.584000
2.805000 1.091000 -0.565000
2.801000 1.082000 -0.558000
2.814000 1.072000 -0.549000
2.816000 1.065000 -0.544000
2.828000 1.062000 -0.541000
2.824000 1.052000 -0.534000
2.834000 1.049000 -0.530000
2.830000 1.039000 -0.524000
2.843000 1.036000 -0.521000
2.878000 0.924000 -0.631000
2.879000 0.933000 -0.635000
2.819000 0.948000 -0.639000
2.675000 0.446000 -1.017000
2.873000 0.668000 -0.785000
2.878000 0.971000 -0.580000
2.865000 0.975000 -0.582000
2.870000 0.986000 -0.586000
2.867000 0.994000 -0.589000
2.857000 1.000000 -0.591000
2.854000 1.008000 -0.594000
2.838000 1.011000 -0.594000
2.757000 1.000000 -0.584000
2.750000 1.006000 -0.586000
2.745000 1.013000 -0.588000
2.754000 1.025000 -0.593000
2.796000 1.058000 -0.609000
2.788000 1.064000 -0.610000
2.785000 1.072000 -0.613000
2.781000 1.079000 -0.615000
2.658000 0.436000 -1.019000
2.537000 0.356000 -1.129000
2.495000 0.354000 -1.118000
2.469000 0.354000 -1.113000
2.450000 0.356000 -1.112000
2.452000 0.360000 -1.120000
2.815000 0.578000 -0.878000
2.840000 1.042000 -0.631000
2.847000 1.037000 -0.626000
2.847000 1.030000 -0.619000
2.845000 1.021000 -0.613000
2.837000 1.011000 -0.605000
2.852000 1.009000 -0.601000
2.885000 1.006000 -0.596000
2.870000 0.985000 -0.580000
2.875000 0.979000 -0.575000
2.894000 0.820000 -0.662000
2.813000 0.939000 -0.724000
2.727000 0.486000 -0.972000
2.938000 0.851000 -0.644000
2.927000 0.718000 -0.753000
2.954000 0.732000 -0.767000
2.846000 1.029000 -0.531000
2.838000 1.036000 -0.532000
2.841000 1.046000 -0.536000
2.826000 1.050000 -0.536000
2.836000 1.063000 -0.541000
2.825000 1.068000 -0.542000
2.808000 1.070000 -0.541000
2.789000 1.072000 -0.540000
2.782000 1.079000 -0.542000
2.778000 1.086000 -0.544000
2.786000 1.098000 -0.548000
2.717000 0.488000 -0.959000
2.797000 0.499000 -0.979000
2.637000 0.406000 -1.099000
2.995000 0.780000 -0.764000
2.835000 1.126000 -0.608000
2.848000 1.124000 -0.605000
2.850000 1.117000 -0.600000
2.860000 1.113000 -0.596000
2.863000 1.107000 -0.590000
2.853000 1.096000 -0.582000
2.837000 1.082000 -0.573000
2.807000 1.063000 -0.561000
2.799000 1.052000 -0.554000
2.822000 1.053000 -0.552000
2.823000 1.046000 -0.547000
2.838000 1.044000 -0.544000
2.834000 1.035000 -0.537000
2.831000 1.026000 -0.531000
2.818000 1.013000 -0.523000
2.880000 0.899000 -0.634000
2.882000 0.908000 -0.639000
2.872000 0.914000 -0.641000
2.455000 0.356000 -1.126000
2.451000 0.354000 -1.116000
2.466000 0.356000 -1.115000
2.496000 0.359000 -1.120000
2.499000 0.359000 -1.113000
2.499000 0.358000 -1.105000
2.946000 0.662000 -0.841000
2.837000 0.632000 -0.801000
2.766000 0.526000 -0.930000
2.822000 0.962000 -0.674000
2.823000 0.956000 -0.667000
2.823000 0.948000 -0.661000
2.873000 0.930000 -0.639000
2.873000 0.923000 -0.632000
2.685000 0.440000 -1.042000
2.863000 0.652000 -0.792000
2.932000 0.675000 -0.818000
2.911000 0.935000 -0.588000
2.899000 0.941000 -0.590000
2.899000 0.950000 -0.593000
2.893000 0.957000 -0.596000
2.898000 0.967000 -0.601000
2.902000 0.978000 -0.606000
2.896000 0.985000 -0.609000
2.900000 0.995000 -0.613000
2.882000 0.998000 -0.613000
2.850000 0.996000 -0.610000
2.842000 1.002000 -0.612000
2.837000 1.009000 -0.615000
2.833000 1.017000 -0.617000
2.835000 1.027000 -0.621000
2.829000 1.033000 -0.624000
2.822000 1.040000 -0.625000
2.753000 1.067000 -0.630000
2.652000 0.423000 -1.050000
2.752000 0.433000 -1.062000
2.823000 0.442000 -1.080000
2.837000 0.442000 -1.076000
2.840000 1.016000 -0.635000
2.828000 1.004000 -0.626000
2.824000 0.996000 -0.619000
2.844000 0.995000 -0.617000
2.900000 1.000000 -0.616000
2.897000 0.992000 -0.609000
2.906000 0.987000 -0.605000
2.919000 0.984000 -0.601000
2.881000 0.956000 -0.581000
2.818000 0.578000 -0.868000
2.948000 0.717000 -0.781000
2.840000 0.999000 -0.546000
2.803000 0.995000 -0.542000
2.812000 1.007000 -0.547000
2.829000 1.023000 -0.553000
2.819000 1.028000 -0.555000
2.824000 1.048000 -0.562000
2.799000 1.048000 -0.560000
2.805000 1.059000 -0.564000
2.837000 1.090000 -0.577000
2.837000 1.099000 -0.580000
2.823000 1.102000 -0.580000
2.837000 1.117000 -0.585000
2.839000 1.127000 -0.589000
2.820000 1.129000 -0.587000
2.804000 1.131000 -0.587000
2.702000 0.471000 -0.989000
2.719000 0.471000 -0.986000
2.508000 0.376000 -1.076000
2.524000 0.383000 -1.090000
2.569000 0.394000 -1.117000
2.547000 0.395000 -1.115000
2.545000 0.399000 -1.121000
2.840000 0.598000 -0.846000
2.883000 0.613000 -0.866000
2.781000 1.083000 -0.613000
2.788000 1.078000 -0.609000
2.788000 1.071000 -0.603000
2.809000 1.072000 -0.602000
2.834000 1.074000 -0.601000
2.771000 1.043000 -0.582000
2.749000 1.027000 -0.571000
2.769000 1.027000 -0.569000
2.785000 1.026000 -0.567000
2.791000 1.020000 -0.562000
2.864000 1.032000 -0.565000
2.809000 1.004000 -0.548000
2.815000 0.999000 -0.543000
2.917000 0.862000 -0.643000
2.911000 0.869000 -0.646000
2.906000 0.876000 -0.650000
2.833000 0.940000 -0.679000
2.820000 0.944000 -0.680000
2.823000 0.954000 -0.685000
2.819000 0.961000 -0.688000
2.744000 0.508000 -0.940000
2.804000 0.949000 -0.696000
2.805000 0.942000 -0.690000
2.818000 0.940000 -0.686000
2.830000 0.937000 -0.682000
2.893000 0.909000 -0.649000
2.477000 0.374000 -1.132000
2.478000 0.373000 -1.124000
2.480000 0.372000 -1.116000
2.488000 0.372000 -1.112000
2.496000 0.372000 -1.107000
2.509000 0.373000 -1.104000
2.499000 0.371000 -1.092000
2.511000 0.371000 -1.089000
2.873000 0.650000 -0.803000
2.759000 0.531000 -0.913000
2.857000 0.777000 -0.704000
2.767000 0.518000 -0.933000
2.820000 0.441000 -1.112000
2.664000 0.426000 -1.065000
2.884000 0.643000 -0.818000
2.793000 1.097000 -0.542000
2.796000 1.091000 -0.537000
2.817000 1.091000 -0.535000
2.861000 1.100000 -0.538000
2.866000 1.094000 -0.533000
2.873000 1.089000 -0.529000
2.890000 1.087000 -0.526000
2.912000 0.919000 -0.608000
2.914000 0.929000 -0.613000
2.900000 0.933000 -0.615000
2.892000 0.939000 -0.617000
2.883000 0.945000 -0.619000
2.875000 0.952000 -0.622000
2.882000 0.963000 -0.627000
2.858000 0.964000 -0.626000
2.844000 0.968000 -0.627000
2.836000 0.974000 -0.629000
2.851000 0.988000 -0.636000
2.831000 0.990000 -0.636000
2.818000 0.994000 -0.637000
2.855000 1.043000 -0.660000
2.540000 0.398000 -1.112000
2.682000 0.416000 -1.147000
2.680000 0.415000 -1.137000
2.834000 0.423000 -1.118000
2.917000 0.670000 -0.796000
2.865000 0.998000 -0.656000
2.824000 0.977000 -0.640000
2.817000 0.967000 -0.631000
2.827000 0.963000 -0.627000
2.846000 0.962000 -0.625000
2.870000 0.963000 -0.624000
2.871000 0.956000 -0.618000
2.883000 0.953000 -0.614000
2.890000 0.948000 -0.609000
2.900000 0.944000 -0.604000
2.909000 0.939000 -0.600000
2.912000 0.933000 -0.594000
2.676000 0.453000 -1.001000
2.730000 0.467000 -1.029000
2.857000 0.672000 -0.769000
2.881000 0.994000 -0.576000
2.833000 0.996000 -0.573000
2.882000 1.022000 -0.586000
2.821000 1.010000 -0.577000
2.772000 1.001000 -0.571000
2.764000 1.007000 -0.572000
2.759000 1.014000 -0.575000
2.745000 1.017000 -0.575000
2.761000 1.032000 -0.581000
2.832000 1.068000 -0.600000
2.815000 1.070000 -0.599000
2.803000 1.075000 -0.600000
2.795000 1.081000 -0.601000
2.786000 1.086000 -0.602000
2.790000 1.097000 -0.606000
2.802000 1.110000 -0.612000
2.676000 0.447000 -1.005000
3.407000 0.534000 -1.157000
2.495000 0.362000 -1.104000
2.502000 0.367000 -1.114000
2.482000 0.368000 -1.113000
2.478000 0.372000 -1.118000
2.904000 0.707000 -0.756000
2.794000 1.055000 -0.629000
2.798000 1.049000 -0.624000
2.805000 1.045000 -0.619000
2.748000 1.009000 -0.595000
2.768000 1.009000 -0.593000
2.789000 1.010000 -0.591000
2.801000 1.007000 -0.588000
2.853000 1.011000 -0.586000
2.847000 1.001000 -0.579000
2.865000 0.999000 -0.576000
2.885000 0.999000 -0.574000
2.796000 0.931000 -0.705000
2.793000 0.938000 -0.708000
2.836000 0.599000 -0.842000
2.846000 0.946000 -0.735000
2.922000 0.860000 -0.640000
2.840000 1.040000 -0.527000
2.840000 1.049000 -0.530000
2.850000 1.062000 -0.535000
2.851000 1.071000 -0.537000
2.842000 1.077000 -0.539000
2.836000 1.084000 -0.540000
2.791000 1.085000 -0.537000
2.791000 1.094000 -0.540000
2.739000 0.494000 -0.956000
2.865000 1.140000 -0.611000
2.862000 1.131000 -0.605000
2.862000 1.123000 -0.599000
2.851000 1.111000 -0.590000
2.843000 1.101000 -0.583000
2.833000 1.089000 -0.575000
2.827000 1.064000 -0.556000
2.822000 1.055000 -0.549000
2.834000 1.051000 -0.546000
2.837000 1.037000 -0.535000
2.847000 1.033000 -0.531000
2.879000 0.917000 -0.639000
2.453000 0.360000 -1.125000
2.444000 0.358000 -1.113000
2.469000 0.361000 -1.116000
2.490000 0.363000 -1.117000
2.499000 0.364000 -1.113000
2.496000 0.362000 -1.103000
2.504000 0.362000 -1.098000
2.862000 0.641000 -0.808000
2.766000 0.529000 -0.926000
2.768000 0.535000 -0.904000
3.119000 0.595000 -0.999000
2.689000 0.443000 -1.039000
2.918000 0.672000 -0.808000
2.912000 0.951000 -0.591000
2.909000 0.959000 -0.594000
2.896000 0.964000 -0.595000
2.915000 0.989000 -0.607000
2.907000 0.995000 -0.609000
2.893000 1.000000 -0.610000
2.883000 1.005000 -0.611000
2.842000 1.009000 -0.610000
2.843000 1.018000 -0.614000
2.830000 1.022000 -0.615000
2.756000 1.013000 -0.605000
2.782000 1.032000 -0.615000
2.808000 1.050000 -0.624000
2.790000 1.052000 -0.623000
2.783000 1.058000 -0.625000
2.773000 1.063000 -0.626000
2.762000 1.068000 -0.627000
2.641000 0.425000 -1.041000
2.676000 0.428000 -1.046000
2.728000 0.434000 -1.057000
2.801000 0.444000 -1.076000
2.864000 0.680000 -0.765000
2.802000 0.566000 -0.885000
2.839000 1.023000 -0.635000
2.827000 1.011000 -0.626000
2.836000 1.007000 -0.622000
2.840000 1.001000 -0.616000
2.863000 1.002000 -0.615000
2.891000 1.004000 -0.614000
2.897000 0.999000 -0.609000
2.909000 0.995000 -0.605000
2.922000 0.992000 -0.602000
2.880000 0.963000 -0.581000
2.862000 0.957000 -0.756000
2.848000 0.593000 -0.881000
2.792000 0.577000 -0.855000
2.789000 0.546000 -0.901000
2.884000 0.668000 -0.791000
2.744000 0.482000 -0.996000
2.947000 0.722000 -0.778000
2.810000 1.002000 -0.538000
2.808000 1.010000 -0.540000
2.813000 1.021000 -0.545000
2.830000 1.037000 -0.551000
2.828000 1.045000 -0.554000
2.819000 1.051000 -0.555000
2.812000 1.057000 -0.557000
2.815000 1.067000 -0.560000
2.807000 1.083000 -0.564000
2.795000 1.087000 -0.565000
2.788000 1.093000 -0.566000
2.821000 1.124000 -0.578000
2.760000 0.482000 -0.989000
2.548000 0.385000 -1.084000
2.603000 0.398000 -1.115000
2.658000 0.411000 -1.146000
2.601000 0.407000 -1.129000
2.539000 0.401000 -1.109000
2.566000 0.410000 -1.129000
2.836000 0.603000 -0.842000
2.787000 1.081000 -0.602000
2.791000 1.075000 -0.597000
2.806000 1.073000 -0.594000
2.783000 1.050000 -0.577000
2.747000 1.029000 -0.564000
2.768000 1.029000 -0.563000
2.788000 1.029000 -0.561000
2.859000 1.032000 -0.557000
2.802000 1.004000 -0.540000
2.803000 0.997000 -0.535000
2.915000 0.867000 -0.639000
2.896000 0.870000 -0.640000
2.894000 0.878000 -0.644000
2.823000 0.942000 -0.672000
2.823000 0.951000 -0.677000
2.821000 0.959000 -0.680000
2.847000 0.624000 -0.819000
2.801000 0.948000 -0.688000
2.805000 0.943000 -0.682000
2.813000 0.938000 -0.677000
2.837000 0.940000 -0.676000
2.883000 0.905000 -0.639000
2.882000 0.898000 -0.632000
2.639000 0.423000 -1.044000
2.911000 0.654000 -0.820000
2.780000 1.089000 -0.527000
2.787000 1.084000 -0.522000
2.797000 1.080000 -0.519000
2.856000 1.087000 -0.518000
2.869000 1.084000 -0.515000
2.879000 1.080000 -0.512000
2.911000 0.921000 -0.600000
2.903000 0.928000 -0.602000
2.897000 0.935000 -0.605000
2.889000 0.941000 -0.608000
2.878000 0.947000 -0.609000
2.879000 0.956000 -0.614000
2.870000 0.962000 -0.616000
2.857000 0.966000 -0.617000
2.845000 0.971000 -0.618000
2.834000 0.976000 -0.620000
2.829000 0.984000 -0.623000
2.826000 1.000000 -0.629000
2.845000 1.016000 -0.637000
2.846000 1.025000 -0.641000
2.561000 0.412000 -1.127000
2.553000 0.410000 -1.115000
2.665000 0.417000 -1.101000
3.010000 0.584000 -0.954000
2.823000 0.560000 -0.910000
2.853000 1.008000 -0.650000
2.850000 1.000000 -0.643000
2.832000 0.986000 -0.632000
2.820000 0.975000 -0.623000
2.819000 0.967000 -0.617000
2.838000 0.966000 -0.615000
2.864000 0.968000 -0.614000
2.878000 0.965000 -0.610000
2.881000 0.959000 -0.605000
2.886000 0.953000 -0.599000
2.893000 0.948000 -0.594000
2.900000 0.943000 -0.590000
2.910000 0.938000 -0.585000
3.115000 0.891000 -0.760000
2.785000 0.565000 -0.871000
2.688000 0.462000 -0.992000
2.729000 0.474000 -1.015000
2.876000 0.823000 -0.666000
2.901000 0.817000 -0.658000
2.872000 0.685000 -0.764000
2.948000 0.710000 -0.791000
2.817000 0.997000 -0.556000
2.869000 1.034000 -0.573000
2.782000 1.021000 -0.562000
2.774000 1.027000 -0.564000
2.758000 1.030000 -0.564000
2.765000 1.042000 -0.568000
2.836000 1.086000 -0.589000
2.842000 1.107000 -0.596000
2.858000 1.123000 -0.603000
2.855000 1.130000 -0.605000
2.852000 1.138000 -0.607000
2.671000 0.459000 -0.998000
2.679000 0.458000 -0.992000
2.657000 0.383000 -1.140000
2.546000 0.371000 -1.100000
2.501000 0.369000 -1.088000
2.501000 0.373000 -1.095000
2.496000 0.376000 -1.100000
2.494000 0.380000 -1.107000
2.908000 0.717000 -0.748000
2.852000 0.598000 -0.866000
2.753000 1.076000 -0.631000
2.757000 1.070000 -0.626000
2.769000 1.068000 -0.622000
2.774000 1.063000 -0.617000
2.783000 1.059000 -0.613000
2.787000 1.053000 -0.608000
2.782000 1.044000 -0.601000
2.740000 1.014000 -0.580000
2.751000 1.011000 -0.576000
2.760000 1.007000 -0.572000
2.768000 1.002000 -0.568000
2.880000 1.028000 -0.579000
2.808000 0.994000 -0.558000
2.826000 0.993000 -0.556000
2.924000 0.851000 -0.653000
2.879000 0.941000 -0.700000
2.797000 0.931000 -0.689000
2.794000 0.939000 -0.692000
2.739000 0.497000 -0.950000
2.811000 0.936000 -0.707000
2.901000 0.883000 -0.646000
2.896000 0.874000 -0.638000
2.905000 0.870000 -0.633000
3.033000 0.776000 -0.778000
2.876000 1.078000 -0.525000
2.867000 1.084000 -0.526000
2.858000 1.089000 -0.527000
2.855000 1.098000 -0.529000
2.722000 0.500000 -0.936000
2.668000 0.420000 -1.088000
2.897000 0.641000 -0.837000
2.805000 1.131000 -0.590000
2.820000 1.130000 -0.588000
2.846000 1.133000 -0.587000
2.843000 1.124000 -0.580000
2.785000 1.086000 -0.557000
2.793000 1.082000 -0.553000
2.780000 1.069000 -0.545000
2.794000 1.067000 -0.542000
2.814000 1.067000 -0.540000
2.837000 1.068000 -0.538000
2.837000 1.060000 -0.533000
2.835000 1.052000 -0.527000
2.842000 1.046000 -0.522000
2.842000 1.038000 -0.517000
2.889000 0.920000 -0.626000
2.883000 0.927000 -0.629000
2.879000 0.934000 -0.632000
2.790000 0.939000 -0.629000
2.793000 0.949000 -0.634000
2.490000 0.377000 -1.129000
2.482000 0.375000 -1.117000
2.479000 0.374000 -1.107000
2.494000 0.375000 -1.105000
2.501000 0.375000 -1.101000
2.496000 0.373000 -1.090000
2.505000 0.373000 -1.085000
2.519000 0.374000 -1.083000
2.934000 0.661000 -0.812000
2.760000 0.531000 -0.911000
2.909000 0.915000 -0.602000
2.860000 0.776000 -0.703000
2.879000 0.960000 -0.581000
2.891000 0.973000 -0.588000
2.894000 0.984000 -0.592000
2.892000 0.992000 -0.595000
2.897000 1.003000 -0.600000
2.888000 1.009000 -0.602000
2.844000 1.011000 -0.600000
2.835000 1.017000 -0.601000
2.747000 1.003000 -0.590000
2.744000 1.011000 -0.592000
2.802000 1.050000 -0.612000
2.793000 1.056000 -0.613000
2.780000 1.059000 -0.613000
2.777000 1.067000 -0.616000
2.771000 1.074000 -0.617000
2.644000 0.431000 -1.023000
2.680000 0.435000 -1.028000
2.804000 0.453000 -1.066000
2.508000 0.352000 -1.127000
2.479000 0.352000 -1.121000
2.456000 0.352000 -1.118000
2.448000 0.355000 -1.121000
2.805000 0.574000 -0.879000
2.844000 1.032000 -0.628000
2.834000 1.021000 -0.619000
2.835000 1.014000 -0.613000
2.845000 1.011000 -0.609000
2.844000 1.003000 -0.603000
2.898000 1.007000 -0.601000
2.894000 0.998000 -0.594000
2.863000 0.972000 -0.576000
2.894000 0.811000 -0.660000
2.888000 0.818000 -0.664000
2.705000 0.450000 -1.035000
2.881000 0.957000 -0.580000
2.886000 0.968000 -0.585000
2.905000 0.993000 -0.596000
2.901000 1.000000 -0.599000
2.895000 1.008000 -0.602000
2.839000 1.006000 -0.597000
2.830000 1.012000 -0.599000
2.804000 1.012000 -0.597000
2.758000 1.004000 -0.590000
2.749000 1.009000 -0.591000
2.804000 1.047000 -0.610000
2.792000 1.052000 -0.611000
2.782000 1.057000 -0.612000
2.770000 1.061000 -0.612000
2.765000 1.068000 -0.614000
2.655000 0.434000 -1.031000
2.659000 0.432000 -1.024000
3.362000 0.527000 -1.216000
2.490000 0.351000 -1.122000
2.460000 0.351000 -1.116000
2.449000 0.353000 -1.118000
2.886000 0.691000 -0.763000
2.830000 1.015000 -0.617000
2.839000 1.011000 -0.612000
2.841000 1.005000 -0.607000
2.856000 1.002000 -0.603000
2.901000 1.003000 -0.600000
2.906000 0.997000 -0.595000
2.870000 0.970000 -0.575000
2.885000 0.820000 -0.667000
2.728000 0.482000 -0.981000
2.910000 0.712000 -0.758000
2.816000 1.010000 -0.534000
2.811000 1.017000 -0.536000
2.827000 1.032000 -0.542000
2.842000 1.047000 -0.548000
2.818000 1.047000 -0.546000
2.826000 1.059000 -0.551000
2.818000 1.065000 -0.552000
2.805000 1.069000 -0.553000
2.780000 1.069000 -0.551000
2.779000 1.077000 -0.553000
2.774000 1.084000 -0.555000
2.787000 1.098000 -0.560000
2.731000 0.482000 -0.974000
2.587000 0.394000 -1.092000
2.589000 0.412000 -1.123000
2.569000 0.413000 -1.122000
2.785000 1.090000 -0.601000
2.794000 1.086000 -0.597000
2.803000 1.082000 -0.593000
2.845000 1.083000 -0.590000
2.766000 1.038000 -0.562000
2.799000 1.043000 -0.563000
2.842000 1.052000 -0.565000
2.849000 1.047000 -0.561000
2.812000 1.018000 -0.542000
2.809000 1.009000 -0.536000
2.812000 1.003000 -0.530000
2.911000 0.869000 -0.633000
2.835000 0.958000 -0.674000
2.814000 0.951000 -0.681000
2.819000 0.946000 -0.675000
2.880000 0.917000 -0.642000
2.885000 0.911000 -0.637000
2.771000 0.436000 -1.072000
2.650000 0.426000 -1.041000
2.728000 0.444000 -1.079000
3.199000 0.709000 -0.885000
2.934000 0.664000 -0.825000
2.872000 1.094000 -0.516000
2.871000 1.085000 -0.510000
2.916000 0.919000 -0.595000
2.904000 0.925000 -0.596000
2.904000 0.934000 -0.601000
2.893000 0.939000 -0.602000
2.888000 0.946000 -0.606000
2.882000 0.953000 -0.608000
2.884000 0.963000 -0.613000
2.879000 0.970000 -0.616000
2.868000 0.975000 -0.617000
2.875000 0.987000 -0.623000
2.859000 0.990000 -0.623000
2.838000 0.992000 -0.622000
2.834000 1.000000 -0.625000
2.833000 1.008000 -0.629000
2.847000 1.022000 -0.635000
2.842000 1.029000 -0.638000
2.573000 0.418000 -1.129000
2.597000 0.421000 -1.131000
2.663000 0.415000 -1.071000
2.715000 0.422000 -1.083000
2.683000 0.415000 -1.061000
2.833000 0.659000 -0.765000
3.401000 0.656000 -1.070000
2.835000 1.001000 -0.644000
2.818000 0.988000 -0.633000
2.840000 0.989000 -0.632000
2.828000 0.977000 -0.623000
2.840000 0.974000 -0.619000
2.855000 0.972000 -0.616000
2.879000 0.973000 -0.615000
2.888000 0.968000 -0.610000
2.887000 0.961000 -0.604000
2.891000 0.954000 -0.598000
2.901000 0.950000 -0.594000
2.907000 0.945000 -0.588000
2.913000 0.939000 -0.583000
2.807000 0.567000 -0.878000
2.699000 0.466000 -1.004000
2.875000 0.683000 -0.765000
2.933000 0.704000 -0.787000
2.816000 0.984000 -0.555000
2.838000 1.001000 -0.563000
2.882000 1.026000 -0.576000
2.829000 1.016000 -0.568000
2.782000 1.008000 -0.562000
2.774000 1.014000 -0.564000
2.762000 1.019000 -0.564000
2.748000 1.022000 -0.564000
2.770000 1.039000 -0.572000
2.838000 1.074000 -0.589000
2.828000 1.079000 -0.590000
2.808000 1.081000 -0.589000
2.797000 1.085000 -0.590000
2.804000 1.097000 -0.594000
2.858000 1.137000 -0.612000
2.683000 0.459000 -1.005000
2.678000 0.456000 -0.995000
2.617000 0.376000 -1.129000
2.517000 0.366000 -1.093000
2.500000 0.367000 -1.093000
2.500000 0.372000 -1.100000
2.490000 0.374000 -1.104000
2.482000 0.378000 -1.107000
2.811000 0.585000 -0.854000
2.759000 1.071000 -0.631000
2.763000 1.065000 -0.626000
2.772000 1.062000 -0.622000
2.774000 1.055000 -0.616000
2.788000 1.053000 -0.613000
2.801000 1.051000 -0.610000
2.793000 1.041000 -0.602000
2.747000 1.009000 -0.580000
2.750000 1.003000 -0.575000
2.763000 1.000000 -0.572000
2.777000 0.998000 -0.569000
2.860000 1.013000 -0.574000
2.867000 1.000000 -0.563000
2.916000 0.843000 -0.651000
2.817000 0.933000 -0.694000
2.792000 0.933000 -0.692000
2.790000 0.940000 -0.696000
2.746000 0.499000 -0.958000
2.810000 0.938000 -0.713000
2.902000 0.878000 -0.644000
2.905000 0.872000 -0.638000
2.918000 0.869000 -0.634000
2.874000 1.071000 -0.526000
2.867000 1.078000 -0.527000
2.851000 1.081000 -0.527000
2.855000 1.092000 -0.530000
2.840000 0.593000 -0.856000
2.721000 0.483000 -0.973000
2.931000 0.853000 -0.650000
2.947000 0.851000 -0.647000
2.905000 0.711000 -0.751000
2.804000 1.128000 -0.589000
2.846000 1.130000 -0.585000
2.848000 1.123000 -0.580000
2.788000 1.084000 -0.556000
2.795000 1.080000 -0.552000
2.781000 1.067000 -0.544000
2.797000 1.065000 -0.541000
2.819000 1.066000 -0.539000
2.840000 1.066000 -0.538000
2.840000 1.058000 -0.532000
2.836000 1.049000 -0.526000
2.839000 1.042000 -0.521000
2.881000 0.918000 -0.625000
2.883000 0.928000 -0.629000
2.878000 0.935000 -0.633000
2.787000 0.940000 -0.629000
2.811000 0.957000 -0.638000
2.870000 0.986000 -0.656000
2.877000 0.997000 -0.662000
2.492000 0.378000 -1.128000
2.482000 0.376000 -1.116000
2.481000 0.375000 -1.107000
2.497000 0.376000 -1.105000
2.500000 0.375000 -1.098000
2.494000 0.373000 -1.087000
2.505000 0.374000 -1.084000
2.519000 0.375000 -1.082000
2.869000 0.651000 -0.800000
2.776000 0.536000 -0.917000
2.795000 0.943000 -0.634000
2.914000 0.916000 -0.601000
2.870000 0.780000 -0.705000
2.834000 0.554000 -0.909000
3.494000 0.514000 -1.226000
2.711000 0.452000 -1.037000
2.880000 0.956000 -0.581000
2.888000 0.968000 -0.586000
2.915000 0.986000 -0.596000
2.914000 0.995000 -0.599000
2.896000 0.998000 -0.599000
2.892000 1.006000 -0.602000
2.844000 1.007000 -0.599000
2.845000 1.017000 -0.603000
2.758000 1.003000 -0.592000
2.746000 1.007000 -0.592000
2.812000 1.049000 -0.613000
2.794000 1.052000 -0.613000
2.785000 1.057000 -0.614000
2.777000 1.063000 -0.615000
2.765000 1.067000 -0.616000
2.651000 0.432000 -1.031000
2.666000 0.432000 -1.028000
2.499000 0.351000 -1.127000
2.472000 0.351000 -1.122000
2.460000 0.353000 -1.123000
2.888000 0.690000 -0.764000
2.836000 1.023000 -0.627000
2.824000 1.011000 -0.618000
2.841000 1.010000 -0.615000
2.840000 1.002000 -0.609000
2.860000 1.002000 -0.607000
2.893000 1.006000 -0.607000
2.899000 1.001000 -0.602000
2.911000 0.997000 -0.598000
2.905000 0.988000 -0.591000
2.884000 0.819000 -0.670000
2.813000 0.583000 -0.854000
2.741000 0.484000 -0.988000
2.905000 0.844000 -0.652000
2.903000 0.705000 -0.754000
2.940000 0.721000 -0.769000
2.807000 1.001000 -0.531000
2.799000 1.007000 -0.533000
2.810000 1.020000 -0.538000
2.843000 1.041000 -0.547000
2.829000 1.045000 -0.547000
2.819000 1.051000 -0.549000
2.818000 1.059000 -0.551000
2.817000 1.068000 -0.554000
2.787000 1.075000 -0.554000
2.782000 1.082000 -0.556000
2.784000 1.092000 -0.559000
2.704000 0.478000 -0.969000
2.812000 0.494000 -0.999000
2.609000 0.398000 -1.106000
2.667000 0.411000 -1.139000
2.635000 0.415000 -1.141000
2.560000 0.408000 -1.115000
2.569000 0.414000 -1.127000
2.780000 1.083000 -0.598000
2.787000 1.079000 -0.593000
2.798000 1.076000 -0.589000
2.834000 1.075000 -0.585000
2.759000 1.031000 -0.558000
2.840000 1.046000 -0.562000
2.859000 1.038000 -0.554000
2.819000 1.015000 -0.541000
2.804000 1.003000 -0.532000
2.819000 1.000000 -0.529000
2.902000 0.871000 -0.634000
2.824000 0.951000 -0.670000
2.826000 0.960000 -0.675000
2.867000 0.631000 -0.818000
2.802000 0.527000 -0.953000
2.806000 0.951000 -0.682000
2.815000 0.947000 -0.677000
2.818000 0.941000 -0.671000
2.877000 0.912000 -0.638000
2.874000 0.904000 -0.630000
2.768000 0.525000 -0.920000
2.769000 0.430000 -1.061000
2.780000 0.436000 -1.074000
2.718000 0.431000 -1.058000
2.650000 0.425000 -1.039000
2.697000 0.438000 -1.065000
2.910000 0.657000 -0.816000
2.851000 1.096000 -0.519000
2.865000 1.093000 -0.516000
2.876000 1.089000 -0.512000
2.879000 1.082000 -0.507000
2.907000 0.922000 -0.596000
2.903000 0.929000 -0.599000
2.900000 0.937000 -0.603000
2.887000 0.942000 -0.604000
2.880000 0.949000 -0.607000
2.878000 0.957000 -0.610000
2.872000 0.964000 -0.613000
2.862000 0.970000 -0.615000
2.862000 0.979000 -0.619000
2.846000 0.982000 -0.619000
2.829000 0.985000 -0.619000
2.820000 0.991000 -0.621000
2.833000 1.004000 -0.627000
2.849000 1.019000 -0.635000
2.845000 1.026000 -0.638000
2.592000 0.421000 -1.140000
2.580000 0.418000 -1.126000
2.628000 0.412000 -1.068000
2.646000 0.413000 -1.067000
2.698000 0.419000 -1.079000
2.697000 0.417000 -1.070000
2.821000 0.561000 -0.906000
2.834000 1.005000 -0.644000
2.833000 0.997000 -0.637000
2.827000 0.988000 -0.630000
2.836000 0.984000 -0.625000
2.828000 0.974000 -0.617000
2.853000 0.975000 -0.616000
2.871000 0.974000 -0.614000
2.886000 0.971000 -0.610000
2.893000 0.966000 -0.605000
2.888000 0.957000 -0.598000
2.892000 0.951000 -0.592000
2.904000 0.948000 -0.589000
2.913000 0.943000 -0.584000
2.714000 0.470000 -1.007000
2.896000 0.687000 -0.768000
2.906000 0.697000 -0.777000
2.808000 0.981000 -0.550000
2.822000 0.995000 -0.556000
2.877000 1.024000 -0.570000
2.854000 1.025000 -0.569000
2.786000 1.009000 -0.558000
2.776000 1.015000 -0.560000
2.770000 1.021000 -0.562000
2.750000 1.023000 -0.561000
2.764000 1.037000 -0.567000
2.837000 1.073000 -0.585000
2.839000 1.083000 -0.588000
2.836000 1.091000 -0.590000
2.818000 1.093000 -0.590000
2.835000 1.109000 -0.596000
2.864000 1.130000 -0.605000
2.852000 1.134000 -0.606000
2.807000 1.134000 -0.602000
2.640000 0.454000 -0.982000
2.701000 0.462000 -0.995000
2.806000 0.477000 -1.025000
2.819000 1.009000 -0.526000
2.831000 1.022000 -0.532000
2.838000 1.034000 -0.536000
2.838000 1.043000 -0.539000
2.828000 1.049000 -0.540000
2.824000 1.056000 -0.542000
2.819000 1.064000 -0.544000
2.802000 1.067000 -0.544000
2.782000 1.068000 -0.543000
2.769000 1.072000 -0.543000
2.771000 1.082000 -0.546000
2.786000 1.097000 -0.551000
2.726000 0.486000 -0.964000
2.647000 0.408000 -1.111000
2.633000 0.429000 -1.143000
3.117000 0.810000 -0.800000
2.781000 1.103000 -0.603000
2.785000 1.097000 -0.597000
2.782000 1.089000 -0.591000
2.798000 1.088000 -0.588000
2.845000 1.091000 -0.586000
2.834000 1.079000 -0.578000
2.774000 1.041000 -0.554000
2.812000 1.048000 -0.556000
2.835000 1.049000 -0.554000
2.836000 1.041000 -0.549000
2.820000 1.028000 -0.540000
2.807000 1.016000 -0.532000
2.816000 1.011000 -0.528000
2.497000 0.371000 -1.089000
2.500000 0.376000 -1.098000
2.496000 0.379000 -1.103000
2.758000 1.067000 -0.623000
2.765000 1.063000 -0.618000
2.775000 1.060000 -0.614000
2.788000 1.058000 -0.611000
2.795000 1.053000 -0.606000
2.819000 1.055000 -0.606000
2.757000 1.024000 -0.586000
2.738000 1.010000 -0.576000
2.746000 1.006000 -0.572000
2.758000 1.003000 -0.569000
2.768000 0.999000 -0.565000
2.818000 0.987000 -0.551000
2.924000 0.847000 -0.650000
2.860000 0.940000 -0.697000
2.795000 0.935000 -0.690000
2.787000 0.941000 -0.692000
2.847000 0.612000 -0.834000
2.759000 0.505000 -0.959000
2.783000 0.933000 -0.703000
2.803000 0.933000 -0.701000
2.894000 0.880000 -0.640000
2.900000 0.875000 -0.634000
2.908000 0.870000 -0.629000
2.874000 1.074000 -0.519000
2.866000 1.080000 -0.521000
2.856000 1.086000 -0.522000
2.846000 1.091000 -0.523000
2.734000 0.504000 -0.933000
2.714000 0.420000 -1.084000
2.642000 0.414000 -1.064000
2.689000 0.426000 -1.090000
2.886000 0.640000 -0.826000
2.801000 1.131000 -0.579000
2.815000 1.129000 -0.576000
2.826000 1.126000 -0.572000
2.818000 1.115000 -0.565000
2.773000 1.082000 -0.545000
2.773000 1.075000 -0.539000
2.775000 1.068000 -0.534000
2.783000 1.063000 -0.530000
2.835000 1.068000 -0.528000
2.845000 1.063000 -0.525000
2.837000 1.053000 -0.517000
2.843000 1.047000 -0.513000
2.879000 0.960000 -0.635000
2.805000 0.944000 -0.623000
2.804000 0.953000 -0.627000
2.816000 0.966000 -0.633000
2.858000 0.989000 -0.646000
2.865000 1.000000 -0.652000
2.531000 0.391000 -1.133000
2.525000 0.389000 -1.122000
2.513000 0.386000 -1.108000
2.523000 0.387000 -1.104000
2.537000 0.388000 -1.102000
2.538000 0.387000 -1.093000
2.542000 0.386000 -1.087000
2.541000 0.384000 -1.078000
2.641000 0.397000 -1.102000
2.700000 0.404000 -1.118000
2.783000 0.415000 -1.143000
2.910000 0.671000 -0.813000
2.848000 0.651000 -0.787000
2.781000 0.541000 -0.909000
2.797000 0.945000 -0.624000
2.881000 0.937000 -0.610000
2.893000 0.934000 -0.606000
2.907000 0.931000 -0.602000
2.907000 0.923000 -0.596000
2.916000 0.919000 -0.591000
2.827000 0.559000 -0.898000
2.673000 0.449000 -1.006000
2.759000 0.469000 -1.046000
2.870000 0.974000 -0.572000
2.872000 0.984000 -0.576000
2.861000 0.989000 -0.578000
2.847000 0.993000 -0.578000
2.850000 1.003000 -0.582000
2.847000 1.011000 -0.585000
2.763000 0.999000 -0.575000
2.754000 1.004000 -0.576000
2.749000 1.011000 -0.578000
2.744000 1.018000 -0.581000
2.809000 1.060000 -0.601000
2.797000 1.065000 -0.601000
2.785000 1.069000 -0.602000
2.775000 1.074000 -0.603000
2.776000 1.084000 -0.606000
2.683000 0.446000 -1.015000
3.483000 0.547000 -1.203000
2.550000 0.359000 -1.117000
2.497000 0.356000 -1.101000
2.497000 0.360000 -1.109000
2.500000 0.364000 -1.117000
2.483000 0.366000 -1.117000
2.475000 0.369000 -1.121000
2.794000 1.044000 -0.624000
2.797000 1.038000 -0.618000
2.767000 1.013000 -0.599000
2.793000 1.015000 -0.599000
2.815000 1.015000 -0.597000
2.836000 1.016000 -0.596000
2.845000 1.012000 -0.592000
2.848000 1.005000 -0.586000
2.850000 0.998000 -0.580000
2.863000 0.995000 -0.577000
2.874000 0.991000 -0.573000
2.883000 0.987000 -0.569000
2.804000 0.933000 -0.709000
2.795000 0.939000 -0.711000
2.849000 0.947000 -0.735000
2.923000 0.860000 -0.640000
2.841000 1.041000 -0.525000
2.840000 1.049000 -0.528000
2.841000 1.059000 -0.531000
2.843000 1.069000 -0.534000
2.830000 1.073000 -0.534000
2.806000 1.073000 -0.533000
2.789000 1.076000 -0.532000
2.786000 1.084000 -0.534000
2.785000 1.093000 -0.537000
2.734000 0.495000 -0.954000
2.635000 0.408000 -1.086000
2.808000 1.135000 -0.609000
2.856000 1.140000 -0.607000
2.858000 1.133000 -0.601000
2.861000 1.127000 -0.596000
2.857000 1.117000 -0.589000
2.850000 1.107000 -0.582000
2.840000 1.095000 -0.574000
2.825000 1.082000 -0.565000
2.814000 1.063000 -0.551000
2.819000 1.057000 -0.546000
2.816000 1.048000 -0.540000
2.837000 1.048000 -0.538000
2.855000 1.047000 -0.536000
2.830000 1.030000 -0.526000
2.881000 0.909000 -0.632000
2.878000 0.917000 -0.636000
2.876000 0.926000 -0.640000
2.856000 0.954000 -0.652000
2.462000 0.364000 -1.130000
2.445000 0.360000 -1.114000
2.465000 0.362000 -1.115000
2.485000 0.365000 -1.116000
2.496000 0.365000 -1.113000
2.496000 0.364000 -1.104000
2.498000 0.363000 -1.097000
2.908000 0.649000 -0.814000
2.758000 0.526000 -0.921000
2.883000 0.925000 -0.626000
2.891000 0.920000 -0.621000
2.762000 0.534000 -0.902000
2.678000 0.440000 -1.035000
2.878000 0.655000 -0.792000
2.934000 0.675000 -0.814000
2.913000 0.944000 -0.589000
2.906000 0.951000 -0.592000
2.899000 0.958000 -0.595000
2.898000 0.967000 -0.598000
2.916000 0.982000 -0.606000
2.907000 0.988000 -0.608000
2.905000 0.996000 -0.611000
2.892000 1.001000 -0.612000
2.846000 1.003000 -0.610000
2.840000 1.009000 -0.612000
2.834000 1.017000 -0.615000
2.840000 1.028000 -0.619000
2.786000 1.026000 -0.615000
2.803000 1.041000 -0.622000
2.798000 1.048000 -0.624000
2.790000 1.054000 -0.626000
2.777000 1.058000 -0.626000
2.758000 1.068000 -0.628000
2.636000 0.423000 -1.045000
2.663000 0.426000 -1.047000
2.734000 0.435000 -1.066000
2.745000 0.435000 -1.061000
2.882000 0.903000 -0.642000
2.469000 0.353000 -1.128000
2.467000 0.352000 -1.119000
2.514000 0.357000 -1.123000
2.512000 0.356000 -1.114000
2.847000 0.632000 -0.810000
2.823000 0.954000 -0.675000
2.819000 0.946000 -0.667000
2.870000 0.927000 -0.645000
2.871000 0.921000 -0.639000
2.876000 0.915000 -0.633000
2.841000 1.039000 -0.655000
2.847000 1.027000 -0.644000
2.839000 1.016000 -0.635000
2.833000 1.007000 -0.628000
2.837000 1.001000 -0.622000
2.845000 0.997000 -0.618000
2.897000 1.000000 -0.616000
2.902000 0.994000 -0.611000
2.913000 0.990000 -0.607000
2.930000 0.988000 -0.604000
2.883000 0.958000 -0.582000
2.866000 0.952000 -0.758000
2.796000 0.575000 -0.861000
2.943000 0.717000 -0.779000
2.818000 0.994000 -0.540000
2.806000 0.999000 -0.541000
2.821000 1.022000 -0.551000
2.835000 1.036000 -0.557000
2.836000 1.046000 -0.560000
2.800000 1.050000 -0.559000
2.818000 1.066000 -0.565000
2.838000 1.083000 -0.573000
2.836000 1.092000 -0.575000
2.824000 1.096000 -0.576000
2.824000 1.105000 -0.578000
2.841000 1.121000 -0.585000
2.839000 1.129000 -0.587000
2.714000 0.475000 -0.991000
2.711000 0.472000 -0.981000
2.520000 0.380000 -1.082000
2.578000 0.398000 -1.123000
2.561000 0.404000 -1.130000
2.783000 1.075000 -0.606000
2.792000 1.071000 -0.602000
2.802000 1.067000 -0.598000
2.824000 1.068000 -0.596000
2.800000 1.051000 -0.585000
2.740000 1.022000 -0.567000
2.759000 1.021000 -0.565000
2.779000 1.022000 -0.563000
2.790000 1.018000 -0.560000
2.802000 0.992000 -0.539000
2.916000 0.857000 -0.639000
2.914000 0.865000 -0.643000
2.904000 0.871000 -0.646000
2.845000 0.939000 -0.678000
2.820000 0.939000 -0.676000
2.818000 0.947000 -0.680000
2.812000 0.954000 -0.683000
2.849000 0.621000 -0.821000
2.745000 0.507000 -0.936000
2.850000 0.532000 -0.979000
2.797000 0.938000 -0.683000
2.815000 0.937000 -0.680000
2.840000 0.939000 -0.679000
2.911000 0.883000 -0.621000
2.807000 0.526000 -0.940000
2.676000 0.431000 -1.066000
2.885000 0.645000 -0.813000
2.783000 1.091000 -0.531000
2.783000 1.083000 -0.525000
2.790000 1.078000 -0.521000
2.851000 1.086000 -0.521000
2.865000 1.083000 -0.518000
2.876000 1.079000 -0.515000
2.881000 1.073000 -0.510000
2.911000 0.919000 -0.602000
2.907000 0.927000 -0.605000
2.896000 0.932000 -0.607000
2.883000 0.937000 -0.609000
2.874000 0.943000 -0.611000
2.875000 0.952000 -0.615000
2.856000 0.955000 -0.615000
2.838000 0.958000 -0.615000
2.827000 0.963000 -0.617000
2.827000 0.972000 -0.621000
2.829000 0.981000 -0.625000
2.813000 0.993000 -0.629000
2.841000 1.012000 -0.639000
2.847000 1.023000 -0.644000
2.844000 1.040000 -0.651000
2.560000 0.410000 -1.129000
2.529000 0.403000 -1.107000
2.592000 0.412000 -1.126000
2.717000 0.424000 -1.135000
2.642000 0.411000 -1.095000
2.757000 0.412000 -1.060000
2.794000 0.551000 -0.902000
2.850000 0.991000 -0.640000
2.819000 0.973000 -0.627000
2.820000 0.966000 -0.621000
2.825000 0.961000 -0.616000
2.845000 0.960000 -0.613000
2.877000 0.964000 -0.614000
2.878000 0.957000 -0.608000
2.877000 0.949000 -0.601000
2.889000 0.946000 -0.597000
2.896000 0.940000 -0.592000
2.906000 0.936000 -0.588000
2.909000 0.929000 -0.582000
2.804000 0.564000 -0.881000
2.673000 0.458000 -0.995000
2.715000 0.470000 -1.018000
2.894000 0.813000 -0.662000
2.873000 0.679000 -0.768000
2.924000 0.699000 -0.788000
2.872000 0.993000 -0.567000
2.833000 0.989000 -0.563000
2.842000 1.001000 -0.568000
2.770000 1.002000 -0.563000
2.766000 1.010000 -0.566000
2.756000 1.015000 -0.567000
2.739000 1.017000 -0.566000
2.781000 1.042000 -0.578000
2.835000 1.071000 -0.593000
2.809000 1.071000 -0.590000
2.794000 1.074000 -0.590000
2.789000 1.081000 -0.592000
2.787000 1.089000 -0.595000
2.794000 1.101000 -0.599000
2.676000 0.454000 -1.003000
2.692000 0.454000 -1.000000
2.499000 0.365000 -1.096000
2.501000 0.370000 -1.103000
2.492000 0.373000 -1.107000
2.473000 0.374000 -1.106000
2.515000 0.385000 -1.132000
2.816000 0.586000 -0.858000
2.777000 1.062000 -0.624000
2.774000 1.054000 -0.617000
2.791000 1.053000 -0.615000
2.816000 1.055000 -0.614000
2.772000 1.031000 -0.598000
2.742000 1.013000 -0.586000
2.747000 1.008000 -0.581000
2.754000 1.003000 -0.577000
2.767000 1.000000 -0.573000
2.843000 1.005000 -0.571000
2.830000 0.993000 -0.562000
2.885000 1.005000 -0.567000
2.912000 0.844000 -0.653000
2.858000 0.939000 -0.702000
2.820000 0.934000 -0.697000
2.794000 0.934000 -0.695000
2.792000 0.942000 -0.699000
2.826000 0.604000 -0.835000
2.754000 0.500000 -0.965000
2.800000 0.936000 -0.717000
2.832000 0.941000 -0.718000
2.908000 0.875000 -0.646000
2.913000 0.870000 -0.640000
2.875000 1.074000 -0.529000
2.869000 1.081000 -0.531000
2.863000 1.088000 -0.532000
2.859000 1.096000 -0.534000
2.756000 0.506000 -0.959000
2.719000 0.496000 -0.937000
2.639000 0.412000 -1.077000
2.874000 0.634000 -0.831000
2.803000 1.130000 -0.591000
2.825000 1.132000 -0.590000
2.835000 1.128000 -0.586000
2.787000 1.094000 -0.565000
2.790000 1.088000 -0.560000
2.784000 1.078000 -0.553000
2.790000 1.073000 -0.548000
2.800000 1.069000 -0.544000
2.845000 1.070000 -0.542000
2.844000 1.062000 -0.536000
2.843000 1.054000 -0.530000
2.843000 1.046000 -0.524000
2.893000 0.921000 -0.627000
2.886000 0.936000 -0.634000
2.803000 0.944000 -0.632000
2.804000 0.953000 -0.636000
2.866000 0.992000 -0.659000
2.871000 1.002000 -0.664000
2.749000 0.527000 -0.911000
2.898000 0.552000 -0.952000
2.666000 0.434000 -1.043000
2.901000 0.653000 -0.805000
2.900000 0.660000 -0.811000
2.496000 0.379000 -1.131000
2.482000 0.376000 -1.116000
2.476000 0.374000 -1.105000
2.496000 0.376000 -1.106000
2.502000 0.376000 -1.100000
2.497000 0.374000 -1.090000
2.506000 0.374000 -1.085000
2.515000 0.375000 -1.081000
2.868000 0.652000 -0.800000
2.919000 0.659000 -0.806000
2.790000 0.540000 -0.921000
2.783000 0.946000 -0.636000
2.791000 0.942000 -0.631000
2.904000 0.929000 -0.610000
2.913000 0.924000 -0.606000
2.913000 0.917000 -0.599000
2.865000 0.781000 -0.703000
2.819000 0.552000 -0.901000
2.673000 0.446000 -1.015000
2.863000 0.666000 -0.781000
2.878000 0.961000 -0.576000
2.876000 0.970000 -0.580000
2.874000 0.978000 -0.583000
2.885000 0.991000 -0.589000
2.881000 0.999000 -0.592000
2.867000 1.003000 -0.593000
2.857000 1.008000 -0.594000
2.840000 1.012000 -0.594000
2.759000 1.000000 -0.584000
2.746000 1.004000 -0.584000
2.811000 1.046000 -0.605000
2.801000 1.051000 -0.606000
2.787000 1.055000 -0.606000
2.779000 1.061000 -0.608000
2.772000 1.067000 -0.609000
2.659000 0.436000 -1.020000
2.543000 0.356000 -1.132000
2.501000 0.354000 -1.120000
2.475000 0.355000 -1.116000
2.448000 0.355000 -1.111000
2.448000 0.359000 -1.118000
2.815000 0.577000 -0.879000
2.835000 1.046000 -0.637000
2.844000 1.035000 -0.626000
2.842000 1.027000 -0.619000
2.833000 1.016000 -0.611000
2.842000 1.012000 -0.607000
2.843000 1.005000 -0.601000
2.859000 1.003000 -0.598000
2.897000 1.009000 -0.599000
2.900000 1.003000 -0.594000
2.867000 0.976000 -0.575000
2.868000 0.969000 -0.569000
2.887000 0.818000 -0.661000
2.815000 0.590000 -0.850000
2.722000 0.483000 -0.972000
2.927000 0.853000 -0.649000
2.943000 0.851000 -0.646000
2.913000 0.714000 -0.753000
2.978000 0.737000 -0.776000
2.819000 1.010000 -0.527000
2.835000 1.025000 -0.533000
2.852000 1.040000 -0.540000
2.846000 1.047000 -0.541000
2.834000 1.052000 -0.542000
2.833000 1.061000 -0.545000
2.816000 1.064000 -0.545000
2.802000 1.067000 -0.545000
2.780000 1.068000 -0.543000
2.778000 1.076000 -0.546000
2.774000 1.084000 -0.548000
2.787000 1.098000 -0.553000
2.748000 0.488000 -0.971000
2.664000 0.410000 -1.121000
2.620000 0.426000 -1.140000
2.807000 1.119000 -0.614000
2.818000 1.116000 -0.610000
2.821000 1.110000 -0.604000
2.822000 1.102000 -0.599000
2.863000 1.103000 -0.595000
2.835000 1.077000 -0.578000
2.807000 1.052000 -0.560000
2.826000 1.051000 -0.558000
2.827000 1.044000 -0.553000
2.839000 1.041000 -0.549000
2.817000 1.017000 -0.533000
2.824000 1.012000 -0.529000
2.881000 0.897000 -0.639000
2.881000 0.906000 -0.644000
2.880000 0.914000 -0.648000
2.816000 0.945000 -0.659000
2.471000 0.351000 -1.126000
2.482000 0.352000 -1.122000
2.519000 0.356000 -1.122000
2.526000 0.356000 -1.117000
2.864000 0.638000 -0.819000
2.763000 0.522000 -0.932000
2.837000 0.963000 -0.681000
2.827000 0.952000 -0.672000
2.876000 0.933000 -0.650000
2.878000 0.927000 -0.644000
2.786000 0.532000 -0.919000
2.654000 0.430000 -1.034000
2.739000 0.448000 -1.075000
2.871000 0.650000 -0.798000
2.910000 0.666000 -0.816000
2.923000 0.936000 -0.595000
2.919000 0.945000 -0.599000
2.908000 0.950000 -0.600000
2.903000 0.958000 -0.604000
2.900000 0.966000 -0.607000
2.914000 0.979000 -0.614000
2.911000 0.987000 -0.617000
2.908000 0.995000 -0.620000
2.902000 1.002000 -0.623000
2.848000 1.001000 -0.619000
2.847000 1.010000 -0.622000
2.843000 1.018000 -0.625000
2.855000 1.031000 -0.631000
2.809000 1.032000 -0.628000
2.790000 1.034000 -0.628000
2.805000 1.049000 -0.634000
2.795000 1.054000 -0.635000
2.786000 1.059000 -0.637000
2.637000 0.417000 -1.055000
2.941000 0.459000 -1.147000
2.824000 0.566000 -0.902000
2.833000 1.010000 -0.640000
2.834000 1.003000 -0.634000
2.838000 0.997000 -0.628000
2.858000 0.997000 -0.626000
2.903000 0.998000 -0.623000
2.899000 0.989000 -0.616000
2.913000 0.986000 -0.612000
2.921000 0.981000 -0.608000
2.903000 0.967000 -0.597000
2.894000 0.957000 -0.589000
2.800000 0.571000 -0.868000
2.898000 0.825000 -0.658000
2.898000 0.818000 -0.651000
2.914000 0.701000 -0.773000
3.055000 0.742000 -0.817000
2.830000 0.988000 -0.547000
2.808000 0.990000 -0.546000
2.852000 1.014000 -0.558000
2.892000 1.037000 -0.569000
2.822000 1.021000 -0.558000
2.805000 1.025000 -0.558000
2.797000 1.031000 -0.560000
2.776000 1.041000 -0.562000
2.846000 1.085000 -0.582000
2.862000 1.101000 -0.588000
2.861000 1.109000 -0.591000
2.866000 1.121000 -0.595000
2.859000 1.127000 -0.597000
2.848000 1.132000 -0.597000
2.707000 0.472000 -1.008000
2.699000 0.468000 -0.996000
2.695000 0.465000 -0.986000
2.510000 0.373000 -1.081000
2.499000 0.376000 -1.084000
2.517000 0.387000 -1.106000
2.823000 0.592000 -0.847000
2.763000 1.070000 -0.612000
2.773000 1.067000 -0.609000
2.781000 1.062000 -0.604000
2.792000 1.059000 -0.601000
2.808000 1.058000 -0.598000
2.814000 1.053000 -0.593000
2.741000 1.011000 -0.566000
2.756000 1.009000 -0.564000
2.768000 1.006000 -0.560000
2.788000 1.006000 -0.558000
2.863000 1.018000 -0.561000
2.802000 0.988000 -0.543000
2.821000 0.987000 -0.541000
2.934000 0.851000 -0.644000
2.922000 0.856000 -0.646000
2.857000 0.939000 -0.687000
2.802000 0.938000 -0.682000
2.801000 0.946000 -0.687000
2.913000 0.930000 -0.594000
2.907000 0.937000 -0.597000
2.898000 0.943000 -0.599000
2.889000 0.949000 -0.601000
2.889000 0.958000 -0.605000
2.889000 0.967000 -0.609000
2.882000 0.974000 -0.611000
2.885000 0.984000 -0.616000
2.887000 0.994000 -0.620000
2.876000 0.999000 -0.622000
2.833000 1.002000 -0.620000
2.828000 1.009000 -0.622000
2.836000 1.021000 -0.628000
2.840000 1.031000 -0.632000
2.827000 1.044000 -0.637000
2.633000 0.416000 -1.065000
2.653000 0.418000 -1.064000
2.739000 0.430000 -1.090000
