# .PCD v0.7 - Point Cloud Data file format
VERSION 0.7
FIELDS x y z
SIZE 4 4 4
TYPE F F F
COUNT 1 1 1
WIDTH 1648
HEIGHT 1
VIEWPOINT 0 0 0 1 0 0 0
POINTS 1648
DATA ascii
3.521000 0.250000 -0.226000
3.568000 0.258000 -0.655000
3.720000 0.265000 -0.671000
3.615000 0.253000 -0.641000
3.589000 0.248000 -0.625000
3.589000 0.244000 -0.613000
3.516000 0.235000 -0.270000
3.545000 0.229000 -0.264000
3.542000 0.222000 -0.255000
3.542000 0.214000 -0.246000
3.533000 0.206000 -0.236000
3.550000 0.200000 -0.229000
3.553000 0.193000 -0.220000
3.533000 0.184000 -0.210000
3.522000 0.176000 -0.201000
3.528000 0.169000 -0.192000
3.553000 0.163000 -0.185000
3.549000 0.155000 -0.176000
3.546000 0.148000 -0.167000
3.540000 0.140000 -0.158000
3.528000 0.132000 -0.149000
3.537000 0.125000 -0.140000
3.567000 0.118000 -0.133000
3.660000 0.236000 -0.540000
3.657000 0.241000 -0.551000
3.516000 0.256000 -0.153000
3.547000 0.116000 -0.138000
3.533000 0.123000 -0.146000
3.535000 0.130000 -0.155000
3.541000 0.138000 -0.164000
3.568000 0.147000 -0.174000
3.543000 0.153000 -0.181000
3.527000 0.167000 -0.198000
3.526000 0.175000 -0.206000
3.548000 0.191000 -0.225000
3.534000 0.198000 -0.233000
3.541000 0.206000 -0.242000
3.542000 0.214000 -0.251000
3.547000 0.222000 -0.259000
3.551000 0.230000 -0.268000
3.511000 0.250000 -0.154000
3.539000 0.216000 -0.327000
3.542000 0.210000 -0.318000
3.548000 0.204000 -0.309000
3.546000 0.198000 -0.299000
3.553000 0.192000 -0.289000
3.551000 0.186000 -0.279000
3.532000 0.179000 -0.268000
3.512000 0.172000 -0.257000
3.531000 0.167000 -0.249000
3.547000 0.161000 -0.240000
3.544000 0.155000 -0.230000
3.538000 0.148000 -0.220000
3.547000 0.142000 -0.211000
3.543000 0.136000 -0.201000
3.535000 0.129000 -0.191000
3.545000 0.123000 -0.182000
3.551000 0.111000 -0.163000
3.455000 0.239000 -0.763000
3.521000 0.261000 -0.821000
3.515000 0.250000 -0.197000
3.533000 0.242000 -0.191000
3.514000 0.232000 -0.183000
3.526000 0.224000 -0.176000
3.526000 0.153000 -0.119000
3.530000 0.144000 -0.112000
3.522000 0.135000 -0.104000
3.534000 0.126000 -0.098000
3.549000 0.104000 -0.162000
3.552000 0.111000 -0.172000
3.544000 0.117000 -0.181000
3.529000 0.123000 -0.190000
3.539000 0.129000 -0.200000
3.551000 0.136000 -0.210000
3.538000 0.142000 -0.219000
3.543000 0.149000 -0.229000
3.557000 0.156000 -0.240000
3.542000 0.162000 -0.248000
3.517000 0.167000 -0.256000
3.524000 0.174000 -0.266000
3.536000 0.181000 -0.276000
3.555000 0.188000 -0.287000
3.548000 0.194000 -0.296000
3.543000 0.201000 -0.305000
3.540000 0.207000 -0.315000
3.519000 0.132000 -0.108000
3.528000 0.141000 -0.116000
3.528000 0.150000 -0.123000
3.529000 0.222000 -0.180000
3.518000 0.230000 -0.186000
3.538000 0.241000 -0.194000
3.518000 0.248000 -0.200000
3.521000 0.258000 -0.207000
3.665000 0.240000 -0.506000
3.667000 0.236000 -0.495000
3.675000 0.232000 -0.485000
3.513000 0.245000 -0.252000
3.534000 0.231000 -0.237000
3.502000 0.221000 -0.226000
3.502000 0.213000 -0.218000
3.502000 0.205000 -0.209000
3.517000 0.198000 -0.202000
3.534000 0.160000 -0.161000
3.527000 0.151000 -0.153000
3.520000 0.143000 -0.144000
3.517000 0.135000 -0.136000
3.513000 0.127000 -0.128000
3.538000 0.120000 -0.120000
3.762000 0.211000 -0.428000
3.684000 0.212000 -0.429000
3.662000 0.217000 -0.437000
3.693000 0.225000 -0.452000
3.533000 0.120000 -0.128000
3.514000 0.127000 -0.135000
3.513000 0.135000 -0.144000
3.527000 0.144000 -0.152000
3.538000 0.152000 -0.161000
3.540000 0.160000 -0.169000
3.511000 0.199000 -0.209000
3.502000 0.206000 -0.216000
3.497000 0.214000 -0.224000
3.516000 0.223000 -0.233000
3.503000 0.247000 -0.257000
3.391000 0.247000 -0.849000
3.375000 0.242000 -0.823000
3.396000 0.241000 -0.817000
3.384000 0.238000 -0.803000
3.388000 0.235000 -0.793000
3.484000 0.232000 -0.312000
3.509000 0.227000 -0.305000
3.553000 0.223000 -0.300000
3.544000 0.216000 -0.289000
3.540000 0.209000 -0.280000
3.557000 0.204000 -0.272000
3.537000 0.196000 -0.261000
3.523000 0.188000 -0.250000
3.521000 0.181000 -0.241000
3.541000 0.169000 -0.224000
3.529000 0.162000 -0.214000
3.537000 0.155000 -0.205000
3.547000 0.149000 -0.196000
3.538000 0.142000 -0.186000
3.529000 0.134000 -0.177000
3.543000 0.128000 -0.168000
3.547000 0.121000 -0.159000
3.552000 0.115000 -0.150000
3.526000 0.251000 -0.686000
3.634000 0.279000 -0.751000
3.625000 0.283000 -0.760000
3.526000 0.264000 -0.186000
3.519000 0.254000 -0.178000
3.513000 0.244000 -0.172000
3.529000 0.236000 -0.165000
3.526000 0.162000 -0.112000
3.533000 0.153000 -0.105000
3.523000 0.143000 -0.099000
3.557000 0.112000 -0.156000
3.548000 0.119000 -0.164000
3.545000 0.126000 -0.174000
3.530000 0.132000 -0.182000
3.536000 0.139000 -0.192000
3.543000 0.146000 -0.201000
3.538000 0.153000 -0.210000
3.537000 0.160000 -0.219000
3.549000 0.167000 -0.229000
3.549000 0.174000 -0.238000
3.522000 0.187000 -0.255000
3.554000 0.203000 -0.275000
3.543000 0.209000 -0.284000
3.552000 0.217000 -0.293000
3.547000 0.224000 -0.302000
3.516000 0.137000 -0.100000
3.528000 0.147000 -0.108000
3.524000 0.156000 -0.114000
3.517000 0.165000 -0.121000
3.511000 0.239000 -0.173000
3.512000 0.249000 -0.179000
3.527000 0.259000 -0.187000
3.518000 0.268000 -0.193000
3.668000 0.224000 -0.406000
3.707000 0.221000 -0.400000
3.714000 0.216000 -0.390000
3.514000 0.188000 -0.338000
3.714000 0.188000 -0.336000
3.569000 0.164000 -0.292000
3.575000 0.159000 -0.282000
3.574000 0.153000 -0.272000
3.503000 0.265000 -0.245000
3.521000 0.241000 -0.223000
3.505000 0.232000 -0.214000
3.502000 0.224000 -0.206000
3.512000 0.216000 -0.198000
3.526000 0.167000 -0.152000
3.525000 0.159000 -0.144000
3.510000 0.150000 -0.136000
3.508000 0.141000 -0.128000
3.522000 0.133000 -0.121000
3.568000 0.151000 -0.275000
3.562000 0.156000 -0.285000
3.562000 0.162000 -0.295000
3.525000 0.178000 -0.321000
3.531000 0.184000 -0.332000
3.486000 0.193000 -0.347000
3.793000 0.229000 -0.410000
3.771000 0.234000 -0.418000
3.623000 0.238000 -0.422000
3.523000 0.127000 -0.122000
3.510000 0.135000 -0.129000
3.509000 0.143000 -0.137000
3.524000 0.152000 -0.145000
3.525000 0.161000 -0.153000
3.527000 0.169000 -0.161000
3.525000 0.211000 -0.200000
3.499000 0.218000 -0.206000
3.507000 0.227000 -0.214000
3.525000 0.237000 -0.223000
3.521000 0.245000 -0.230000
3.497000 0.250000 -0.681000
3.457000 0.237000 -0.640000
3.522000 0.238000 -0.641000
3.638000 0.242000 -0.651000
3.530000 0.230000 -0.276000
3.543000 0.224000 -0.268000
3.539000 0.216000 -0.259000
3.541000 0.209000 -0.250000
3.537000 0.202000 -0.240000
3.539000 0.195000 -0.231000
3.542000 0.187000 -0.223000
3.535000 0.180000 -0.213000
3.511000 0.171000 -0.203000
3.520000 0.165000 -0.195000
3.540000 0.151000 -0.178000
3.559000 0.144000 -0.170000
3.536000 0.136000 -0.160000
3.522000 0.128000 -0.151000
3.520000 0.121000 -0.142000
3.535000 0.114000 -0.134000
3.631000 0.239000 -0.574000
3.669000 0.247000 -0.591000
3.514000 0.252000 -0.157000
3.506000 0.242000 -0.151000
3.543000 0.107000 -0.132000
3.522000 0.113000 -0.140000
3.517000 0.120000 -0.149000
3.535000 0.128000 -0.158000
3.560000 0.137000 -0.168000
3.542000 0.143000 -0.176000
3.521000 0.165000 -0.201000
3.540000 0.173000 -0.211000
3.558000 0.181000 -0.221000
3.540000 0.188000 -0.229000
3.532000 0.195000 -0.237000
3.532000 0.202000 -0.246000
3.539000 0.210000 -0.255000
3.539000 0.218000 -0.264000
3.540000 0.225000 -0.272000
3.513000 0.240000 -0.154000
3.520000 0.202000 -0.316000
3.519000 0.196000 -0.306000
3.551000 0.191000 -0.299000
3.572000 0.187000 -0.291000
3.553000 0.179000 -0.280000
3.521000 0.172000 -0.267000
3.507000 0.165000 -0.257000
3.534000 0.160000 -0.249000
3.551000 0.155000 -0.240000
3.548000 0.149000 -0.230000
3.542000 0.143000 -0.220000
3.549000 0.137000 -0.211000
3.539000 0.130000 -0.200000
3.527000 0.124000 -0.190000
3.540000 0.118000 -0.181000
3.552000 0.112000 -0.172000
3.547000 0.106000 -0.162000
3.359000 0.233000 -0.780000
3.372000 0.238000 -0.793000
3.391000 0.243000 -0.808000
3.442000 0.251000 -0.831000
3.487000 0.259000 -0.853000
3.510000 0.252000 -0.206000
3.518000 0.244000 -0.199000
3.526000 0.236000 -0.192000
3.515000 0.227000 -0.184000
3.528000 0.219000 -0.178000
3.528000 0.148000 -0.119000
3.537000 0.140000 -0.112000
3.527000 0.130000 -0.104000
3.532000 0.122000 -0.097000
3.558000 0.099000 -0.159000
3.550000 0.104000 -0.169000
3.550000 0.111000 -0.179000
3.535000 0.116000 -0.187000
3.539000 0.123000 -0.197000
3.548000 0.129000 -0.207000
3.543000 0.135000 -0.217000
3.538000 0.141000 -0.226000
3.545000 0.148000 -0.236000
3.547000 0.154000 -0.246000
3.522000 0.160000 -0.254000
3.525000 0.166000 -0.264000
3.535000 0.173000 -0.274000
3.555000 0.180000 -0.285000
3.544000 0.186000 -0.294000
3.524000 0.191000 -0.302000
3.546000 0.199000 -0.313000
3.538000 0.205000 -0.322000
3.520000 0.126000 -0.107000
3.532000 0.135000 -0.115000
3.526000 0.144000 -0.122000
3.518000 0.223000 -0.187000
3.523000 0.232000 -0.194000
3.520000 0.241000 -0.201000
3.509000 0.249000 -0.208000
3.513000 0.258000 -0.215000
3.644000 0.242000 -0.535000
3.647000 0.238000 -0.524000
3.553000 0.127000 -0.180000
3.541000 0.134000 -0.189000
3.546000 0.141000 -0.199000
3.549000 0.148000 -0.208000
3.541000 0.154000 -0.217000
3.543000 0.161000 -0.226000
3.558000 0.169000 -0.237000
3.542000 0.175000 -0.245000
3.516000 0.180000 -0.252000
3.533000 0.188000 -0.262000
3.549000 0.203000 -0.282000
3.546000 0.210000 -0.291000
3.557000 0.217000 -0.301000
3.532000 0.223000 -0.308000
3.494000 0.227000 -0.314000
3.528000 0.142000 -0.106000
3.542000 0.151000 -0.113000
3.527000 0.160000 -0.120000
3.540000 0.235000 -0.174000
3.517000 0.243000 -0.180000
3.528000 0.253000 -0.187000
3.531000 0.263000 -0.193000
3.520000 0.271000 -0.199000
3.589000 0.222000 -0.414000
3.766000 0.222000 -0.413000
3.633000 0.193000 -0.356000
3.743000 0.188000 -0.345000
3.512000 0.265000 -0.251000
3.520000 0.242000 -0.227000
3.496000 0.232000 -0.218000
3.503000 0.224000 -0.210000
3.514000 0.217000 -0.203000
3.523000 0.209000 -0.196000
3.539000 0.168000 -0.157000
3.530000 0.160000 -0.148000
3.516000 0.151000 -0.140000
3.520000 0.143000 -0.132000
3.527000 0.135000 -0.125000
3.581000 0.147000 -0.275000
3.579000 0.153000 -0.285000
3.699000 0.188000 -0.347000
3.495000 0.183000 -0.338000
3.517000 0.190000 -0.350000
3.711000 0.213000 -0.390000
3.709000 0.219000 -0.401000
3.697000 0.224000 -0.410000
3.498000 0.244000 -0.259000
3.539000 0.239000 -0.254000
3.536000 0.231000 -0.245000
3.528000 0.223000 -0.236000
3.507000 0.214000 -0.226000
3.504000 0.206000 -0.217000
3.509000 0.199000 -0.209000
3.533000 0.153000 -0.160000
3.527000 0.145000 -0.152000
3.510000 0.137000 -0.142000
3.505000 0.129000 -0.134000
3.519000 0.121000 -0.126000
3.922000 0.216000 -0.455000
3.940000 0.223000 -0.469000
3.711000 0.238000 -0.495000
3.521000 0.120000 -0.132000
3.509000 0.128000 -0.140000
3.510000 0.135000 -0.149000
3.525000 0.144000 -0.158000
3.527000 0.152000 -0.166000
3.531000 0.160000 -0.175000
3.509000 0.198000 -0.215000
3.502000 0.206000 -0.223000
3.516000 0.214000 -0.232000
3.525000 0.223000 -0.241000
3.532000 0.239000 -0.257000
3.386000 0.235000 -0.859000
3.386000 0.233000 -0.848000
3.523000 0.220000 -0.306000
3.539000 0.215000 -0.298000
3.537000 0.208000 -0.289000
3.542000 0.202000 -0.280000
3.522000 0.194000 -0.268000
3.513000 0.187000 -0.258000
3.501000 0.180000 -0.248000
3.530000 0.175000 -0.241000
3.550000 0.170000 -0.233000
3.526000 0.162000 -0.222000
3.523000 0.155000 -0.212000
3.531000 0.149000 -0.203000
3.528000 0.142000 -0.194000
3.517000 0.135000 -0.184000
3.532000 0.129000 -0.175000
3.536000 0.122000 -0.166000
3.535000 0.116000 -0.157000
3.513000 0.241000 -0.691000
3.504000 0.245000 -0.700000
3.505000 0.265000 -0.193000
3.516000 0.257000 -0.187000
3.510000 0.247000 -0.180000
3.509000 0.238000 -0.173000
3.507000 0.156000 -0.111000
3.509000 0.147000 -0.105000
3.509000 0.137000 -0.098000
3.533000 0.118000 -0.169000
3.524000 0.124000 -0.178000
3.518000 0.131000 -0.187000
3.523000 0.138000 -0.196000
3.531000 0.145000 -0.206000
3.523000 0.151000 -0.215000
3.529000 0.158000 -0.224000
3.549000 0.166000 -0.235000
3.526000 0.172000 -0.243000
3.498000 0.177000 -0.250000
3.516000 0.185000 -0.260000
3.540000 0.200000 -0.281000
3.538000 0.207000 -0.290000
3.537000 0.214000 -0.299000
3.511000 0.219000 -0.306000
3.481000 0.224000 -0.312000
3.497000 0.138000 -0.105000
3.517000 0.148000 -0.112000
3.509000 0.157000 -0.119000
3.516000 0.231000 -0.173000
3.507000 0.240000 -0.179000
3.519000 0.250000 -0.186000
3.508000 0.259000 -0.192000
3.507000 0.268000 -0.199000
3.869000 0.217000 -0.405000
3.662000 0.200000 -0.373000
3.589000 0.191000 -0.355000
3.680000 0.190000 -0.353000
3.713000 0.187000 -0.346000
3.793000 0.185000 -0.342000
3.567000 0.153000 -0.280000
3.575000 0.148000 -0.271000
3.507000 0.259000 -0.246000
3.512000 0.235000 -0.222000
3.491000 0.225000 -0.213000
3.499000 0.218000 -0.205000
3.506000 0.210000 -0.198000
3.520000 0.161000 -0.151000
3.519000 0.153000 -0.143000
3.507000 0.144000 -0.135000
3.505000 0.136000 -0.127000
3.514000 0.128000 -0.119000
3.523000 0.120000 -0.228000
3.570000 0.144000 -0.272000
3.566000 0.149000 -0.282000
3.562000 0.155000 -0.291000
3.503000 0.180000 -0.336000
3.486000 0.185000 -0.344000
3.687000 0.208000 -0.385000
3.713000 0.216000 -0.398000
3.706000 0.221000 -0.408000
3.519000 0.121000 -0.119000
3.506000 0.128000 -0.126000
3.505000 0.136000 -0.134000
3.523000 0.145000 -0.143000
3.532000 0.154000 -0.151000
3.534000 0.162000 -0.159000
3.527000 0.204000 -0.198000
3.512000 0.211000 -0.205000
3.514000 0.220000 -0.213000
3.529000 0.229000 -0.222000
3.521000 0.237000 -0.229000
3.532000 0.255000 -0.245000
3.510000 0.247000 -0.704000
3.509000 0.243000 -0.692000
3.371000 0.228000 -0.644000
3.416000 0.227000 -0.641000
3.513000 0.231000 -0.648000
3.534000 0.222000 -0.274000
3.540000 0.215000 -0.265000
3.550000 0.209000 -0.256000
3.539000 0.201000 -0.247000
3.541000 0.194000 -0.238000
3.549000 0.187000 -0.229000
3.555000 0.180000 -0.220000
3.533000 0.172000 -0.210000
3.519000 0.164000 -0.200000
3.535000 0.158000 -0.192000
3.547000 0.151000 -0.184000
3.547000 0.144000 -0.175000
3.561000 0.137000 -0.166000
3.521000 0.121000 -0.147000
3.517000 0.114000 -0.138000
3.540000 0.108000 -0.130000
3.618000 0.238000 -0.593000
3.635000 0.244000 -0.607000
3.514000 0.244000 -0.157000
3.517000 0.234000 -0.151000
3.550000 0.103000 -0.131000
3.528000 0.109000 -0.140000
3.524000 0.116000 -0.148000
3.536000 0.124000 -0.158000
3.557000 0.132000 -0.168000
3.552000 0.139000 -0.177000
3.550000 0.146000 -0.185000
3.526000 0.159000 -0.202000
3.532000 0.167000 -0.211000
3.554000 0.175000 -0.221000
3.546000 0.182000 -0.230000
3.541000 0.190000 -0.238000
3.539000 0.197000 -0.247000
3.548000 0.205000 -0.257000
3.542000 0.212000 -0.265000
3.535000 0.219000 -0.273000
3.519000 0.237000 -0.157000
3.522000 0.246000 -0.164000
3.525000 0.197000 -0.322000
3.544000 0.192000 -0.314000
3.562000 0.187000 -0.305000
3.563000 0.181000 -0.295000
3.551000 0.175000 -0.284000
3.544000 0.169000 -0.274000
3.536000 0.162000 -0.263000
3.535000 0.157000 -0.253000
3.551000 0.151000 -0.244000
3.538000 0.145000 -0.234000
3.539000 0.139000 -0.224000
3.554000 0.134000 -0.215000
3.543000 0.127000 -0.204000
3.537000 0.121000 -0.194000
3.551000 0.116000 -0.185000
3.556000 0.110000 -0.176000
3.557000 0.104000 -0.166000
3.374000 0.234000 -0.828000
3.374000 0.238000 -0.839000
3.375000 0.242000 -0.850000
3.508000 0.249000 -0.212000
3.518000 0.241000 -0.205000
3.522000 0.233000 -0.198000
3.508000 0.224000 -0.189000
3.524000 0.216000 -0.183000
3.523000 0.147000 -0.123000
3.529000 0.138000 -0.115000
3.525000 0.129000 -0.108000
3.532000 0.121000 -0.101000
3.547000 0.118000 -0.199000
3.547000 0.124000 -0.209000
3.537000 0.130000 -0.218000
3.533000 0.136000 -0.228000
3.538000 0.142000 -0.238000
3.547000 0.149000 -0.249000
3.539000 0.154000 -0.258000
3.533000 0.160000 -0.267000
3.537000 0.167000 -0.277000
3.554000 0.174000 -0.288000
3.558000 0.180000 -0.298000
3.560000 0.186000 -0.308000
3.528000 0.191000 -0.315000
3.548000 0.198000 -0.326000
3.565000 0.206000 -0.338000
3.523000 0.124000 -0.110000
3.524000 0.133000 -0.117000
3.519000 0.141000 -0.125000
3.530000 0.150000 -0.132000
3.540000 0.168000 -0.148000
3.520000 0.219000 -0.191000
3.514000 0.228000 -0.198000
3.524000 0.237000 -0.206000
3.514000 0.245000 -0.213000
3.509000 0.254000 -0.220000
3.621000 0.246000 -0.581000
3.615000 0.241000 -0.568000
3.649000 0.239000 -0.562000
3.742000 0.241000 -0.565000
3.533000 0.223000 -0.248000
3.534000 0.216000 -0.239000
3.516000 0.207000 -0.229000
3.521000 0.200000 -0.221000
3.531000 0.193000 -0.213000
3.525000 0.178000 -0.195000
3.533000 0.155000 -0.170000
3.522000 0.140000 -0.152000
3.514000 0.132000 -0.143000
3.513000 0.124000 -0.135000
3.532000 0.117000 -0.127000
3.671000 0.237000 -0.519000
3.519000 0.119000 -0.137000
3.509000 0.127000 -0.145000
3.525000 0.135000 -0.154000
3.550000 0.143000 -0.164000
3.534000 0.150000 -0.172000
3.522000 0.173000 -0.197000
3.513000 0.196000 -0.222000
3.522000 0.204000 -0.230000
3.537000 0.213000 -0.240000
3.536000 0.220000 -0.248000
3.533000 0.236000 -0.265000
3.541000 0.213000 -0.310000
3.540000 0.206000 -0.300000
3.544000 0.200000 -0.291000
3.554000 0.195000 -0.282000
3.537000 0.187000 -0.271000
3.519000 0.180000 -0.260000
3.504000 0.173000 -0.250000
3.541000 0.169000 -0.243000
3.550000 0.163000 -0.234000
3.535000 0.155000 -0.223000
3.534000 0.149000 -0.213000
3.538000 0.143000 -0.204000
3.532000 0.136000 -0.194000
3.530000 0.130000 -0.185000
3.548000 0.117000 -0.167000
3.503000 0.218000 -0.675000
3.582000 0.227000 -0.702000
3.613000 0.242000 -0.741000
3.588000 0.245000 -0.747000
3.431000 0.243000 -0.736000
3.449000 0.249000 -0.750000
3.521000 0.258000 -0.776000
3.572000 0.267000 -0.799000
3.505000 0.258000 -0.197000
3.528000 0.251000 -0.191000
3.522000 0.241000 -0.184000
3.517000 0.232000 -0.176000
3.518000 0.160000 -0.120000
3.523000 0.151000 -0.113000
3.522000 0.142000 -0.106000
3.521000 0.133000 -0.099000
3.546000 0.111000 -0.166000
3.545000 0.124000 -0.185000
3.533000 0.130000 -0.194000
3.540000 0.136000 -0.204000
3.540000 0.143000 -0.213000
3.531000 0.149000 -0.222000
3.544000 0.156000 -0.232000
3.554000 0.163000 -0.243000
3.524000 0.169000 -0.250000
3.511000 0.175000 -0.258000
3.527000 0.182000 -0.269000
3.540000 0.196000 -0.289000
3.543000 0.203000 -0.298000
3.543000 0.210000 -0.308000
3.523000 0.130000 -0.103000
3.521000 0.139000 -0.110000
3.519000 0.148000 -0.117000
3.519000 0.157000 -0.124000
3.516000 0.229000 -0.179000
3.518000 0.238000 -0.186000
3.534000 0.249000 -0.194000
3.517000 0.257000 -0.200000
3.518000 0.266000 -0.207000
3.682000 0.237000 -0.476000
3.672000 0.232000 -0.464000
3.685000 0.207000 -0.411000
3.697000 0.188000 -0.368000
3.524000 0.253000 -0.253000
3.539000 0.238000 -0.237000
3.512000 0.228000 -0.227000
3.504000 0.220000 -0.218000
3.504000 0.212000 -0.210000
3.511000 0.205000 -0.202000
3.540000 0.166000 -0.163000
3.541000 0.158000 -0.155000
3.521000 0.149000 -0.146000
3.521000 0.141000 -0.138000
3.518000 0.133000 -0.129000
3.530000 0.125000 -0.122000
3.754000 0.185000 -0.365000
3.648000 0.186000 -0.365000
3.716000 0.195000 -0.383000
3.532000 0.125000 -0.129000
3.522000 0.133000 -0.137000
3.512000 0.141000 -0.145000
3.538000 0.150000 -0.154000
3.542000 0.158000 -0.162000
3.517000 0.206000 -0.209000
3.501000 0.213000 -0.216000
3.506000 0.222000 -0.224000
3.524000 0.231000 -0.234000
3.536000 0.248000 -0.250000
3.505000 0.254000 -0.256000
3.487000 0.262000 -0.841000
3.435000 0.242000 -0.761000
3.517000 0.245000 -0.768000
3.506000 0.221000 -0.676000
3.560000 0.222000 -0.675000
3.485000 0.234000 -0.305000
3.558000 0.225000 -0.292000
3.548000 0.218000 -0.282000
3.542000 0.210000 -0.272000
3.533000 0.189000 -0.244000
3.544000 0.183000 -0.235000
3.554000 0.177000 -0.227000
3.526000 0.168000 -0.216000
3.512000 0.161000 -0.206000
3.542000 0.155000 -0.198000
3.552000 0.149000 -0.190000
3.548000 0.142000 -0.180000
3.535000 0.134000 -0.171000
3.541000 0.127000 -0.162000
3.545000 0.120000 -0.153000
3.559000 0.114000 -0.144000
3.587000 0.240000 -0.633000
3.585000 0.244000 -0.644000
3.551000 0.247000 -0.648000
3.504000 0.248000 -0.650000
3.513000 0.254000 -0.663000
3.536000 0.264000 -0.179000
3.510000 0.252000 -0.171000
3.498000 0.242000 -0.164000
3.524000 0.235000 -0.159000
3.531000 0.141000 -0.094000
3.552000 0.110000 -0.148000
3.542000 0.117000 -0.157000
3.541000 0.124000 -0.166000
3.532000 0.131000 -0.174000
3.550000 0.138000 -0.184000
3.565000 0.146000 -0.194000
3.533000 0.152000 -0.202000
3.520000 0.158000 -0.210000
3.536000 0.166000 -0.220000
3.554000 0.174000 -0.230000
3.543000 0.180000 -0.239000
3.548000 0.188000 -0.248000
3.542000 0.209000 -0.275000
3.553000 0.217000 -0.285000
3.539000 0.223000 -0.292000
3.529000 0.143000 -0.101000
3.515000 0.237000 -0.165000
3.498000 0.245000 -0.171000
3.519000 0.256000 -0.178000
3.531000 0.266000 -0.185000
3.751000 0.229000 -0.398000
3.661000 0.218000 -0.377000
3.499000 0.203000 -0.351000
3.496000 0.197000 -0.340000
3.510000 0.192000 -0.332000
3.552000 0.183000 -0.315000
3.550000 0.178000 -0.305000
3.559000 0.173000 -0.296000
3.561000 0.167000 -0.286000
3.569000 0.162000 -0.276000
3.580000 0.157000 -0.267000
3.531000 0.138000 -0.233000
3.526000 0.132000 -0.223000
3.544000 0.127000 -0.214000
3.521000 0.250000 -0.224000
3.523000 0.242000 -0.216000
3.516000 0.233000 -0.208000
3.505000 0.224000 -0.199000
3.534000 0.218000 -0.193000
3.529000 0.175000 -0.154000
3.533000 0.167000 -0.147000
3.533000 0.158000 -0.139000
3.510000 0.149000 -0.130000
3.513000 0.140000 -0.123000
3.523000 0.132000 -0.116000
3.536000 0.124000 -0.108000
3.531000 0.127000 -0.224000
3.527000 0.133000 -0.234000
3.539000 0.139000 -0.245000
3.573000 0.152000 -0.267000
3.571000 0.158000 -0.277000
3.561000 0.164000 -0.286000
3.554000 0.169000 -0.295000
3.541000 0.175000 -0.304000
3.547000 0.181000 -0.314000
3.558000 0.187000 -0.325000
3.511000 0.197000 -0.341000
3.525000 0.132000 -0.122000
3.509000 0.140000 -0.129000
3.514000 0.148000 -0.137000
3.533000 0.166000 -0.153000
3.523000 0.217000 -0.198000
3.511000 0.225000 -0.205000
3.531000 0.235000 -0.214000
3.519000 0.243000 -0.220000
3.514000 0.251000 -0.228000
3.688000 0.285000 -0.744000
3.549000 0.253000 -0.649000
3.616000 0.254000 -0.650000
3.587000 0.248000 -0.633000
3.578000 0.244000 -0.620000
3.605000 0.242000 -0.614000
3.665000 0.242000 -0.613000
3.519000 0.133000 -0.130000
3.511000 0.141000 -0.138000
3.517000 0.149000 -0.146000
3.526000 0.158000 -0.154000
3.533000 0.167000 -0.162000
3.515000 0.208000 -0.200000
3.508000 0.215000 -0.208000
3.500000 0.223000 -0.215000
3.503000 0.232000 -0.223000
3.522000 0.242000 -0.232000
3.499000 0.265000 -0.253000
3.606000 0.273000 -0.786000
3.503000 0.249000 -0.707000
3.528000 0.248000 -0.701000
3.473000 0.241000 -0.679000
3.387000 0.232000 -0.651000
3.379000 0.228000 -0.639000
3.526000 0.241000 -0.297000
3.527000 0.234000 -0.288000
3.546000 0.228000 -0.280000
3.538000 0.220000 -0.270000
3.534000 0.192000 -0.234000
3.542000 0.185000 -0.225000
3.527000 0.177000 -0.215000
3.507000 0.169000 -0.205000
3.525000 0.163000 -0.197000
3.552000 0.157000 -0.190000
3.542000 0.149000 -0.180000
3.523000 0.141000 -0.170000
3.532000 0.134000 -0.162000
3.530000 0.127000 -0.153000
3.546000 0.120000 -0.144000
3.618000 0.241000 -0.596000
3.624000 0.247000 -0.608000
3.493000 0.258000 -0.166000
3.497000 0.249000 -0.160000
3.526000 0.165000 -0.104000
3.528000 0.155000 -0.098000
3.522000 0.146000 -0.092000
3.558000 0.233000 -0.271000
3.542000 0.225000 -0.261000
3.541000 0.218000 -0.252000
3.537000 0.210000 -0.243000
3.538000 0.203000 -0.234000
3.545000 0.196000 -0.225000
3.545000 0.188000 -0.217000
3.522000 0.180000 -0.206000
3.515000 0.172000 -0.197000
3.545000 0.159000 -0.181000
3.559000 0.152000 -0.173000
3.534000 0.143000 -0.163000
3.523000 0.135000 -0.154000
3.527000 0.128000 -0.146000
3.542000 0.121000 -0.138000
3.655000 0.241000 -0.556000
3.515000 0.261000 -0.157000
3.517000 0.251000 -0.151000
3.538000 0.119000 -0.143000
3.526000 0.126000 -0.151000
3.535000 0.134000 -0.160000
3.552000 0.142000 -0.170000
3.558000 0.149000 -0.179000
3.554000 0.157000 -0.187000
3.535000 0.163000 -0.195000
3.521000 0.170000 -0.203000
3.533000 0.178000 -0.212000
3.555000 0.187000 -0.222000
3.551000 0.195000 -0.231000
3.540000 0.202000 -0.239000
3.538000 0.209000 -0.247000
3.543000 0.217000 -0.256000
3.548000 0.225000 -0.265000
3.524000 0.247000 -0.154000
3.521000 0.257000 -0.160000
3.572000 0.218000 -0.336000
3.536000 0.210000 -0.322000
3.541000 0.204000 -0.313000
3.543000 0.198000 -0.303000
3.566000 0.193000 -0.295000
3.556000 0.187000 -0.285000
3.545000 0.180000 -0.274000
3.537000 0.173000 -0.264000
3.539000 0.167000 -0.254000
3.551000 0.162000 -0.245000
3.538000 0.155000 -0.234000
3.530000 0.148000 -0.224000
3.534000 0.142000 -0.215000
3.548000 0.137000 -0.206000
3.552000 0.131000 -0.196000
3.471000 0.237000 -0.775000
3.404000 0.237000 -0.771000
3.413000 0.246000 -0.794000
3.444000 0.252000 -0.812000
3.505000 0.261000 -0.838000
3.517000 0.260000 -0.209000
3.530000 0.252000 -0.202000
3.525000 0.243000 -0.194000
3.509000 0.233000 -0.186000
3.535000 0.226000 -0.180000
3.546000 0.182000 -0.144000
3.539000 0.164000 -0.129000
3.524000 0.154000 -0.122000
3.532000 0.145000 -0.115000
3.532000 0.137000 -0.108000
3.553000 0.133000 -0.210000
3.534000 0.139000 -0.219000
3.536000 0.145000 -0.229000
3.545000 0.152000 -0.239000
3.552000 0.159000 -0.249000
3.536000 0.165000 -0.257000
3.532000 0.171000 -0.267000
3.548000 0.178000 -0.277000
3.563000 0.185000 -0.288000
3.565000 0.192000 -0.298000
3.538000 0.197000 -0.305000
3.544000 0.204000 -0.315000
3.544000 0.210000 -0.325000
3.537000 0.140000 -0.117000
3.534000 0.148000 -0.124000
3.529000 0.157000 -0.131000
3.551000 0.176000 -0.146000
3.522000 0.228000 -0.188000
3.527000 0.238000 -0.196000
3.538000 0.247000 -0.203000
3.520000 0.255000 -0.209000
3.525000 0.264000 -0.217000
3.645000 0.243000 -0.528000
3.666000 0.239000 -0.520000
3.702000 0.237000 -0.514000
3.531000 0.249000 -0.263000
3.543000 0.234000 -0.247000
3.540000 0.226000 -0.238000
3.532000 0.218000 -0.229000
3.529000 0.210000 -0.220000
3.524000 0.202000 -0.211000
3.547000 0.164000 -0.170000
3.534000 0.148000 -0.153000
3.525000 0.140000 -0.144000
3.525000 0.132000 -0.136000
3.553000 0.125000 -0.129000
3.706000 0.238000 -0.490000
3.550000 0.120000 -0.131000
3.528000 0.128000 -0.139000
3.524000 0.135000 -0.147000
3.540000 0.144000 -0.156000
3.544000 0.160000 -0.173000
3.525000 0.198000 -0.214000
3.513000 0.206000 -0.221000
3.521000 0.214000 -0.230000
3.534000 0.223000 -0.239000
3.543000 0.232000 -0.248000
3.520000 0.246000 -0.262000
3.373000 0.237000 -0.857000
3.391000 0.236000 -0.851000
3.367000 0.232000 -0.833000
3.517000 0.223000 -0.307000
3.552000 0.218000 -0.300000
3.541000 0.211000 -0.290000
3.545000 0.205000 -0.281000
3.528000 0.190000 -0.260000
3.508000 0.183000 -0.249000
3.538000 0.178000 -0.242000
3.562000 0.172000 -0.234000
3.541000 0.165000 -0.224000
3.542000 0.158000 -0.214000
3.551000 0.152000 -0.206000
3.543000 0.145000 -0.196000
3.532000 0.138000 -0.186000
3.543000 0.131000 -0.177000
3.549000 0.125000 -0.168000
3.557000 0.118000 -0.159000
3.419000 0.232000 -0.660000
3.502000 0.242000 -0.686000
3.495000 0.246000 -0.696000
3.618000 0.279000 -0.775000
3.512000 0.267000 -0.194000
3.528000 0.259000 -0.188000
3.520000 0.250000 -0.180000
3.518000 0.240000 -0.173000
3.536000 0.232000 -0.167000
3.521000 0.158000 -0.112000
3.529000 0.149000 -0.106000
3.517000 0.139000 -0.099000
3.546000 0.112000 -0.159000
3.545000 0.118000 -0.168000
3.540000 0.125000 -0.178000
3.533000 0.131000 -0.187000
3.537000 0.138000 -0.196000
3.538000 0.145000 -0.205000
3.532000 0.152000 -0.214000
3.539000 0.159000 -0.224000
3.555000 0.166000 -0.234000
3.535000 0.172000 -0.242000
3.519000 0.178000 -0.250000
3.531000 0.186000 -0.260000
3.545000 0.200000 -0.280000
3.538000 0.207000 -0.288000
3.552000 0.215000 -0.299000
3.541000 0.221000 -0.307000
3.517000 0.136000 -0.103000
3.526000 0.146000 -0.110000
3.524000 0.155000 -0.116000
3.512000 0.238000 -0.176000
3.514000 0.247000 -0.183000
3.524000 0.257000 -0.190000
3.518000 0.266000 -0.196000
3.596000 0.220000 -0.411000
3.688000 0.220000 -0.411000
3.594000 0.194000 -0.358000
3.486000 0.183000 -0.337000
3.681000 0.187000 -0.345000
3.718000 0.184000 -0.338000
3.574000 0.155000 -0.284000
3.572000 0.150000 -0.273000
3.593000 0.145000 -0.265000
3.507000 0.262000 -0.249000
3.536000 0.256000 -0.243000
3.529000 0.239000 -0.226000
3.508000 0.230000 -0.217000
3.501000 0.221000 -0.208000
3.514000 0.214000 -0.201000
3.529000 0.165000 -0.154000
3.529000 0.157000 -0.146000
3.518000 0.148000 -0.138000
3.511000 0.140000 -0.130000
3.516000 0.132000 -0.122000
3.536000 0.124000 -0.115000
3.585000 0.142000 -0.267000
3.569000 0.147000 -0.276000
3.569000 0.153000 -0.286000
3.558000 0.158000 -0.295000
3.496000 0.184000 -0.340000
3.504000 0.190000 -0.351000
3.702000 0.213000 -0.391000
3.721000 0.220000 -0.404000
3.706000 0.225000 -0.413000
3.621000 0.232000 -0.423000
3.526000 0.124000 -0.122000
3.510000 0.132000 -0.129000
3.510000 0.140000 -0.137000
3.531000 0.149000 -0.146000
3.537000 0.158000 -0.154000
3.529000 0.166000 -0.162000
3.523000 0.207000 -0.201000
3.498000 0.214000 -0.207000
3.508000 0.223000 -0.215000
3.520000 0.232000 -0.224000
3.500000 0.249000 -0.708000
3.528000 0.247000 -0.703000
3.491000 0.242000 -0.684000
3.407000 0.233000 -0.657000
3.379000 0.228000 -0.641000
3.466000 0.230000 -0.646000
3.596000 0.236000 -0.659000
3.554000 0.230000 -0.283000
3.549000 0.222000 -0.274000
3.543000 0.215000 -0.264000
3.556000 0.202000 -0.247000
3.542000 0.194000 -0.237000
3.545000 0.187000 -0.228000
3.547000 0.180000 -0.219000
3.515000 0.164000 -0.199000
3.555000 0.151000 -0.183000
3.546000 0.144000 -0.174000
3.533000 0.136000 -0.164000
3.528000 0.129000 -0.155000
3.541000 0.122000 -0.147000
3.554000 0.115000 -0.139000
3.624000 0.239000 -0.594000
3.621000 0.244000 -0.604000
3.502000 0.252000 -0.163000
3.511000 0.244000 -0.157000
3.541000 0.140000 -0.089000
3.547000 0.116000 -0.148000
3.540000 0.123000 -0.157000
3.539000 0.130000 -0.166000
3.539000 0.137000 -0.175000
3.557000 0.145000 -0.184000
3.557000 0.152000 -0.193000
3.528000 0.158000 -0.201000
3.507000 0.165000 -0.208000
3.538000 0.174000 -0.219000
3.551000 0.182000 -0.229000
3.548000 0.189000 -0.238000
3.552000 0.196000 -0.247000
3.552000 0.204000 -0.256000
3.553000 0.211000 -0.265000
3.543000 0.218000 -0.273000
3.549000 0.226000 -0.282000
3.541000 0.233000 -0.290000
3.535000 0.147000 -0.099000
3.511000 0.251000 -0.167000
3.527000 0.205000 -0.337000
3.530000 0.200000 -0.327000
3.543000 0.195000 -0.318000
3.549000 0.189000 -0.309000
3.559000 0.184000 -0.300000
3.561000 0.178000 -0.290000
3.568000 0.173000 -0.281000
3.569000 0.167000 -0.271000
3.574000 0.161000 -0.261000
3.548000 0.154000 -0.249000
3.537000 0.148000 -0.238000
3.524000 0.142000 -0.228000
3.526000 0.136000 -0.218000
3.381000 0.232000 -0.825000
3.376000 0.236000 -0.834000
3.376000 0.239000 -0.845000
3.376000 0.243000 -0.856000
3.521000 0.254000 -0.217000
3.529000 0.246000 -0.210000
3.523000 0.238000 -0.202000
3.521000 0.229000 -0.194000
3.543000 0.222000 -0.188000
3.541000 0.178000 -0.150000
3.532000 0.160000 -0.134000
3.517000 0.151000 -0.126000
3.521000 0.142000 -0.119000
3.542000 0.135000 -0.112000
3.532000 0.132000 -0.222000
3.531000 0.138000 -0.231000
3.537000 0.144000 -0.241000
3.578000 0.158000 -0.264000
3.574000 0.164000 -0.273000
3.568000 0.170000 -0.283000
3.566000 0.177000 -0.293000
3.556000 0.182000 -0.301000
3.552000 0.188000 -0.311000
3.530000 0.193000 -0.319000
3.540000 0.200000 -0.329000
3.551000 0.207000 -0.340000
3.532000 0.135000 -0.119000
3.516000 0.143000 -0.126000
3.518000 0.152000 -0.134000
3.538000 0.161000 -0.142000
3.546000 0.170000 -0.150000
3.541000 0.179000 -0.157000
3.536000 0.222000 -0.194000
3.520000 0.230000 -0.200000
3.523000 0.239000 -0.208000
3.526000 0.248000 -0.215000
3.519000 0.256000 -0.222000
3.619000 0.249000 -0.588000
3.610000 0.244000 -0.575000
3.717000 0.243000 -0.570000
3.552000 0.240000 -0.266000
3.542000 0.231000 -0.256000
3.546000 0.224000 -0.248000
3.540000 0.216000 -0.238000
3.539000 0.209000 -0.230000
3.549000 0.202000 -0.222000
3.560000 0.195000 -0.214000
3.525000 0.177000 -0.194000
3.546000 0.163000 -0.178000
3.564000 0.156000 -0.170000
3.545000 0.148000 -0.161000
3.527000 0.139000 -0.152000
3.535000 0.132000 -0.143000
3.550000 0.125000 -0.135000
3.680000 0.239000 -0.521000
3.532000 0.147000 -0.082000
3.550000 0.122000 -0.140000
3.534000 0.129000 -0.148000
3.540000 0.137000 -0.157000
3.547000 0.145000 -0.166000
3.568000 0.154000 -0.175000
3.547000 0.160000 -0.183000
3.525000 0.175000 -0.198000
3.529000 0.183000 -0.207000
3.546000 0.199000 -0.225000
3.538000 0.207000 -0.233000
3.540000 0.215000 -0.242000
3.545000 0.223000 -0.250000
3.547000 0.231000 -0.259000
3.533000 0.238000 -0.266000
3.548000 0.213000 -0.309000
3.543000 0.206000 -0.299000
3.544000 0.200000 -0.289000
3.552000 0.194000 -0.280000
3.536000 0.187000 -0.269000
3.524000 0.180000 -0.259000
3.522000 0.174000 -0.249000
3.549000 0.168000 -0.242000
3.547000 0.162000 -0.232000
3.532000 0.155000 -0.221000
3.545000 0.149000 -0.213000
3.550000 0.143000 -0.203000
3.550000 0.136000 -0.194000
3.559000 0.130000 -0.185000
3.507000 0.220000 -0.679000
3.621000 0.231000 -0.712000
3.596000 0.243000 -0.740000
3.550000 0.244000 -0.742000
3.445000 0.241000 -0.730000
3.425000 0.244000 -0.737000
3.548000 0.262000 -0.785000
3.517000 0.266000 -0.203000
3.521000 0.257000 -0.196000
3.530000 0.249000 -0.189000
3.521000 0.239000 -0.182000
3.534000 0.231000 -0.175000
3.541000 0.186000 -0.140000
3.535000 0.168000 -0.126000
3.525000 0.158000 -0.118000
3.529000 0.149000 -0.112000
3.526000 0.140000 -0.105000
3.558000 0.125000 -0.187000
3.546000 0.131000 -0.196000
3.553000 0.138000 -0.206000
3.547000 0.144000 -0.215000
3.538000 0.151000 -0.224000
3.542000 0.157000 -0.234000
3.551000 0.165000 -0.244000
3.526000 0.170000 -0.251000
3.519000 0.176000 -0.260000
3.532000 0.183000 -0.271000
3.552000 0.191000 -0.282000
3.547000 0.198000 -0.290000
3.546000 0.204000 -0.300000
3.548000 0.211000 -0.309000
3.530000 0.133000 -0.106000
3.528000 0.142000 -0.113000
3.520000 0.151000 -0.119000
3.528000 0.160000 -0.127000
3.527000 0.233000 -0.182000
3.531000 0.243000 -0.189000
3.540000 0.252000 -0.197000
3.517000 0.260000 -0.202000
3.515000 0.269000 -0.209000
3.678000 0.239000 -0.482000
3.674000 0.234000 -0.471000
3.691000 0.230000 -0.462000
3.763000 0.225000 -0.448000
3.763000 0.219000 -0.437000
3.688000 0.205000 -0.407000
3.515000 0.257000 -0.256000
3.520000 0.233000 -0.232000
3.503000 0.224000 -0.222000
3.502000 0.216000 -0.214000
3.504000 0.208000 -0.206000
3.531000 0.202000 -0.199000
3.543000 0.162000 -0.159000
3.530000 0.154000 -0.150000
3.517000 0.145000 -0.142000
3.522000 0.137000 -0.134000
3.532000 0.129000 -0.126000
3.899000 0.189000 -0.373000
3.673000 0.190000 -0.372000
3.824000 0.203000 -0.399000
3.749000 0.217000 -0.423000
3.620000 0.216000 -0.419000
3.490000 0.213000 -0.414000
3.542000 0.123000 -0.127000
3.517000 0.130000 -0.134000
3.519000 0.138000 -0.142000
3.529000 0.147000 -0.151000
3.546000 0.155000 -0.160000
3.550000 0.164000 -0.168000
3.514000 0.203000 -0.206000
3.503000 0.210000 -0.214000
3.502000 0.218000 -0.221000
3.515000 0.227000 -0.230000
3.500000 0.251000 -0.253000
3.495000 0.263000 -0.848000
3.479000 0.243000 -0.765000
3.565000 0.226000 -0.692000
3.517000 0.220000 -0.672000
3.557000 0.133000 -0.129000
3.525000 0.140000 -0.136000
3.525000 0.148000 -0.144000
3.540000 0.157000 -0.152000
3.547000 0.174000 -0.168000
3.517000 0.215000 -0.205000
3.505000 0.222000 -0.213000
3.504000 0.231000 -0.220000
3.517000 0.240000 -0.229000
3.515000 0.265000 -0.252000
3.626000 0.276000 -0.781000
3.493000 0.250000 -0.697000
3.498000 0.247000 -0.687000
3.372000 0.231000 -0.641000
3.430000 0.232000 -0.641000
3.547000 0.237000 -0.651000
3.552000 0.238000 -0.291000
3.553000 0.231000 -0.282000
3.550000 0.224000 -0.273000
3.548000 0.202000 -0.245000
3.546000 0.195000 -0.236000
3.561000 0.189000 -0.228000
3.546000 0.181000 -0.218000
3.532000 0.173000 -0.208000
3.542000 0.166000 -0.200000
3.553000 0.159000 -0.191000
3.547000 0.152000 -0.182000
3.542000 0.144000 -0.173000
3.551000 0.137000 -0.164000
3.559000 0.130000 -0.156000
3.624000 0.243000 -0.594000
3.649000 0.250000 -0.609000
3.524000 0.273000 -0.174000
3.511000 0.262000 -0.167000
3.525000 0.254000 -0.161000
3.542000 0.168000 -0.105000
3.540000 0.158000 -0.099000
3.545000 0.149000 -0.093000
3.531000 0.119000 -0.151000
3.530000 0.126000 -0.160000
3.527000 0.133000 -0.169000
3.528000 0.141000 -0.178000
3.543000 0.148000 -0.188000
3.541000 0.156000 -0.196000
3.517000 0.162000 -0.204000
3.512000 0.169000 -0.213000
3.540000 0.178000 -0.223000
3.542000 0.185000 -0.232000
3.532000 0.192000 -0.240000
3.536000 0.214000 -0.267000
3.539000 0.222000 -0.276000
3.540000 0.229000 -0.285000
3.516000 0.143000 -0.096000
3.504000 0.247000 -0.164000
3.500000 0.257000 -0.169000
3.525000 0.202000 -0.329000
3.545000 0.197000 -0.321000
3.551000 0.192000 -0.312000
3.550000 0.186000 -0.302000
3.550000 0.180000 -0.292000
3.555000 0.174000 -0.282000
3.562000 0.169000 -0.273000
3.566000 0.163000 -0.263000
3.568000 0.157000 -0.253000
3.518000 0.143000 -0.230000
3.513000 0.137000 -0.220000
3.524000 0.132000 -0.211000
3.389000 0.233000 -0.823000
3.371000 0.235000 -0.830000
3.374000 0.240000 -0.841000
3.378000 0.244000 -0.853000
3.514000 0.257000 -0.218000
3.512000 0.248000 -0.210000
3.507000 0.239000 -0.202000
3.502000 0.230000 -0.194000
3.523000 0.223000 -0.188000
3.525000 0.171000 -0.143000
3.514000 0.162000 -0.135000
3.509000 0.153000 -0.128000
3.508000 0.144000 -0.120000
3.516000 0.136000 -0.113000
3.511000 0.231000 -0.301000
3.552000 0.220000 -0.285000
3.544000 0.213000 -0.275000
3.540000 0.192000 -0.247000
3.544000 0.185000 -0.238000
3.561000 0.179000 -0.230000
3.546000 0.172000 -0.220000
3.520000 0.163000 -0.209000
3.536000 0.157000 -0.201000
3.553000 0.151000 -0.193000
3.551000 0.144000 -0.184000
3.539000 0.136000 -0.174000
3.545000 0.130000 -0.165000
3.544000 0.123000 -0.156000
3.558000 0.116000 -0.147000
3.713000 0.241000 -0.641000
3.608000 0.239000 -0.634000
3.575000 0.242000 -0.639000
3.564000 0.246000 -0.648000
3.505000 0.251000 -0.658000
3.534000 0.265000 -0.181000
3.516000 0.255000 -0.173000
3.515000 0.245000 -0.167000
3.536000 0.237000 -0.161000
3.536000 0.162000 -0.108000
3.529000 0.143000 -0.095000
3.551000 0.116000 -0.155000
3.544000 0.122000 -0.164000
3.541000 0.129000 -0.173000
3.538000 0.136000 -0.182000
3.555000 0.144000 -0.192000
3.550000 0.151000 -0.201000
3.527000 0.157000 -0.209000
3.527000 0.164000 -0.218000
3.553000 0.172000 -0.228000
3.548000 0.179000 -0.237000
3.536000 0.186000 -0.245000
3.550000 0.194000 -0.255000
3.547000 0.208000 -0.273000
3.543000 0.215000 -0.282000
3.558000 0.223000 -0.292000
3.543000 0.229000 -0.300000
3.533000 0.140000 -0.099000
3.539000 0.150000 -0.106000
3.537000 0.159000 -0.112000
3.516000 0.243000 -0.170000
3.517000 0.252000 -0.176000
3.530000 0.272000 -0.189000
3.508000 0.231000 -0.405000
3.496000 0.198000 -0.343000
3.506000 0.193000 -0.334000
3.546000 0.184000 -0.317000
3.569000 0.174000 -0.299000
3.568000 0.169000 -0.289000
3.577000 0.164000 -0.279000
3.583000 0.158000 -0.269000
3.542000 0.139000 -0.236000
3.536000 0.134000 -0.226000
3.525000 0.253000 -0.226000
3.528000 0.245000 -0.218000
3.516000 0.236000 -0.210000
3.514000 0.228000 -0.202000
3.532000 0.220000 -0.195000
3.538000 0.178000 -0.157000
3.540000 0.170000 -0.149000
3.528000 0.161000 -0.141000
3.519000 0.152000 -0.133000
3.517000 0.143000 -0.125000
3.542000 0.136000 -0.118000
3.582000 0.157000 -0.275000
3.570000 0.162000 -0.284000
3.569000 0.168000 -0.294000
3.570000 0.174000 -0.304000
3.539000 0.179000 -0.311000
3.533000 0.185000 -0.320000
3.531000 0.191000 -0.330000
3.502000 0.195000 -0.337000
3.496000 0.201000 -0.346000
3.525000 0.138000 -0.128000
3.517000 0.146000 -0.135000
3.524000 0.155000 -0.143000
3.542000 0.165000 -0.152000
3.541000 0.173000 -0.159000
3.520000 0.224000 -0.204000
3.516000 0.232000 -0.211000
3.533000 0.242000 -0.220000
3.526000 0.250000 -0.227000
3.587000 0.250000 -0.636000
3.577000 0.246000 -0.623000
3.600000 0.244000 -0.616000
3.655000 0.244000 -0.614000
3.532000 0.234000 -0.271000
3.545000 0.228000 -0.263000
3.550000 0.221000 -0.255000
3.546000 0.213000 -0.245000
3.545000 0.206000 -0.236000
3.552000 0.199000 -0.228000
3.547000 0.191000 -0.219000
3.520000 0.175000 -0.200000
3.545000 0.169000 -0.192000
3.554000 0.161000 -0.184000
3.544000 0.153000 -0.175000
3.533000 0.146000 -0.165000
3.543000 0.139000 -0.157000
3.546000 0.131000 -0.149000
3.562000 0.124000 -0.140000
3.651000 0.240000 -0.552000
3.668000 0.247000 -0.565000
3.517000 0.264000 -0.159000
3.520000 0.255000 -0.153000
3.536000 0.158000 -0.093000
3.533000 0.148000 -0.087000
3.551000 0.124000 -0.148000
3.547000 0.131000 -0.157000
3.539000 0.139000 -0.165000
3.538000 0.146000 -0.174000
3.558000 0.154000 -0.183000
3.555000 0.162000 -0.192000
3.528000 0.168000 -0.199000
3.517000 0.175000 -0.207000
3.535000 0.184000 -0.217000
3.555000 0.192000 -0.227000
3.549000 0.200000 -0.235000
3.549000 0.207000 -0.244000
3.548000 0.215000 -0.252000
3.554000 0.223000 -0.261000
3.554000 0.231000 -0.270000
3.542000 0.156000 -0.098000
3.524000 0.254000 -0.157000
3.520000 0.263000 -0.162000
3.552000 0.214000 -0.326000
3.546000 0.208000 -0.316000
3.558000 0.203000 -0.307000
3.562000 0.197000 -0.297000
3.557000 0.190000 -0.287000
3.549000 0.184000 -0.277000
3.556000 0.178000 -0.267000
3.545000 0.171000 -0.257000
3.551000 0.165000 -0.247000
3.537000 0.158000 -0.237000
3.528000 0.152000 -0.227000
3.531000 0.145000 -0.217000
3.539000 0.139000 -0.208000
3.457000 0.239000 -0.766000
3.493000 0.258000 -0.817000
3.519000 0.265000 -0.211000
3.526000 0.257000 -0.204000
3.526000 0.248000 -0.197000
3.508000 0.238000 -0.188000
3.540000 0.231000 -0.183000
3.541000 0.187000 -0.146000
3.537000 0.169000 -0.132000
3.515000 0.159000 -0.124000
3.516000 0.150000 -0.117000
3.532000 0.142000 -0.110000
3.542000 0.138000 -0.215000
3.528000 0.144000 -0.223000
3.532000 0.150000 -0.233000
3.548000 0.158000 -0.244000
3.548000 0.164000 -0.253000
3.539000 0.170000 -0.262000
3.541000 0.177000 -0.272000
3.551000 0.184000 -0.282000
3.565000 0.191000 -0.293000
3.554000 0.197000 -0.301000
3.546000 0.203000 -0.310000
3.534000 0.209000 -0.319000
3.541000 0.216000 -0.329000
3.540000 0.137000 -0.113000
3.527000 0.145000 -0.120000
3.525000 0.154000 -0.127000
3.538000 0.164000 -0.135000
3.550000 0.182000 -0.149000
3.536000 0.227000 -0.184000
3.517000 0.235000 -0.191000
3.524000 0.244000 -0.198000
3.529000 0.254000 -0.205000
3.523000 0.262000 -0.212000
3.526000 0.271000 -0.219000
3.676000 0.247000 -0.524000
3.661000 0.241000 -0.511000
3.682000 0.238000 -0.503000
3.737000 0.237000 -0.499000
3.524000 0.248000 -0.257000
3.539000 0.234000 -0.241000
3.531000 0.225000 -0.232000
3.516000 0.217000 -0.223000
3.518000 0.209000 -0.215000
3.535000 0.202000 -0.207000
3.547000 0.163000 -0.166000
3.551000 0.155000 -0.158000
3.524000 0.146000 -0.148000
3.522000 0.138000 -0.140000
3.536000 0.131000 -0.132000
3.749000 0.219000 -0.445000
3.781000 0.226000 -0.460000
3.711000 0.228000 -0.462000
3.502000 0.221000 -0.446000
3.543000 0.124000 -0.133000
3.520000 0.131000 -0.141000
3.520000 0.139000 -0.149000
3.542000 0.148000 -0.158000
3.547000 0.164000 -0.175000
3.522000 0.203000 -0.214000
3.517000 0.211000 -0.222000
3.522000 0.219000 -0.231000
3.536000 0.228000 -0.240000
3.549000 0.237000 -0.249000
3.506000 0.250000 -0.262000
3.365000 0.242000 -0.848000
3.367000 0.240000 -0.838000
3.367000 0.238000 -0.827000
3.393000 0.238000 -0.822000
3.405000 0.236000 -0.814000
3.405000 0.234000 -0.803000
3.538000 0.223000 -0.304000
3.549000 0.217000 -0.295000
3.545000 0.211000 -0.285000
3.560000 0.205000 -0.277000
3.536000 0.197000 -0.266000
3.528000 0.190000 -0.256000
3.518000 0.183000 -0.246000
3.555000 0.171000 -0.229000
3.533000 0.163000 -0.219000
3.546000 0.157000 -0.210000
3.543000 0.150000 -0.201000
3.534000 0.143000 -0.191000
3.533000 0.136000 -0.181000
3.555000 0.130000 -0.173000
3.554000 0.124000 -0.164000
3.380000 0.231000 -0.644000
3.501000 0.249000 -0.689000
3.524000 0.266000 -0.190000
3.535000 0.258000 -0.184000
3.522000 0.248000 -0.176000
3.529000 0.239000 -0.169000
3.524000 0.165000 -0.115000
3.528000 0.156000 -0.109000
3.522000 0.146000 -0.102000
3.539000 0.137000 -0.096000
3.561000 0.122000 -0.171000
3.554000 0.129000 -0.180000
3.533000 0.135000 -0.188000
3.545000 0.142000 -0.198000
3.549000 0.149000 -0.208000
3.535000 0.155000 -0.216000
3.544000 0.163000 -0.226000
3.565000 0.171000 -0.237000
3.537000 0.176000 -0.244000
3.519000 0.182000 -0.252000
3.529000 0.190000 -0.262000
3.548000 0.205000 -0.282000
3.549000 0.212000 -0.291000
3.552000 0.219000 -0.300000
3.527000 0.225000 -0.307000
3.497000 0.230000 -0.314000
3.525000 0.143000 -0.106000
3.531000 0.152000 -0.113000
3.526000 0.162000 -0.120000
3.531000 0.236000 -0.173000
3.523000 0.245000 -0.180000
3.530000 0.255000 -0.187000
3.528000 0.265000 -0.193000
3.520000 0.273000 -0.199000
3.555000 0.222000 -0.410000
3.669000 0.224000 -0.412000
3.720000 0.188000 -0.342000
3.500000 0.266000 -0.250000
3.521000 0.243000 -0.227000
3.496000 0.234000 -0.218000
3.502000 0.226000 -0.210000
3.514000 0.218000 -0.203000
3.520000 0.210000 -0.195000
3.535000 0.170000 -0.157000
3.536000 0.161000 -0.149000
3.518000 0.152000 -0.140000
3.525000 0.144000 -0.133000
3.535000 0.136000 -0.125000
3.553000 0.129000 -0.118000
3.586000 0.153000 -0.283000
3.508000 0.189000 -0.346000
3.690000 0.212000 -0.385000
3.713000 0.219000 -0.398000
3.712000 0.225000 -0.408000
3.540000 0.131000 -0.127000
3.519000 0.138000 -0.134000
3.519000 0.146000 -0.142000
3.528000 0.155000 -0.150000
3.541000 0.164000 -0.158000
3.538000 0.172000 -0.166000
3.519000 0.213000 -0.204000
3.504000 0.221000 -0.211000
3.497000 0.229000 -0.218000
3.520000 0.239000 -0.227000
3.506000 0.263000 -0.250000
3.472000 0.248000 -0.695000
3.503000 0.247000 -0.690000
3.445000 0.240000 -0.668000
3.383000 0.229000 -0.634000
3.543000 0.239000 -0.292000
3.553000 0.233000 -0.284000
3.544000 0.225000 -0.274000
3.559000 0.219000 -0.266000
3.555000 0.204000 -0.248000
3.543000 0.196000 -0.238000
3.556000 0.190000 -0.230000
3.550000 0.182000 -0.220000
3.529000 0.174000 -0.210000
3.530000 0.167000 -0.201000
