# .PCD v0.7 - Point Cloud Data file format
VERSION 0.7
FIELDS x y z
SIZE 4 4 4
TYPE F F F
COUNT 1 1 1
WIDTH 1669
HEIGHT 1
VIEWPOINT 0 0 0 1 0 0 0
POINTS 1669
DATA ascii
3.205000 -0.101000 0.018000
3.252000 -0.119000 -0.061000
2.873000 0.164000 0.361000
2.866000 0.160000 0.351000
2.864000 0.155000 0.343000
2.861000 0.151000 0.334000
2.857000 0.147000 0.325000
2.860000 0.143000 0.317000
2.886000 0.140000 0.312000
2.901000 0.136000 0.305000
2.870000 0.131000 0.293000
2.832000 0.125000 0.281000
2.821000 0.121000 0.271000
2.808000 0.116000 0.262000
2.822000 0.113000 0.255000
2.846000 0.110000 0.249000
2.845000 0.106000 0.240000
2.848000 0.102000 0.232000
2.837000 0.098000 0.223000
2.838000 0.094000 0.214000
2.839000 0.090000 0.206000
2.884000 0.084000 0.192000
3.329000 -0.108000 -0.288000
3.314000 -0.115000 -0.307000
3.124000 -0.040000 0.122000
3.137000 -0.043000 0.132000
3.178000 -0.085000 0.057000
3.173000 -0.076000 0.051000
3.292000 -0.131000 -0.131000
3.287000 -0.123000 -0.123000
2.923000 0.170000 0.186000
2.853000 0.178000 0.195000
2.859000 0.185000 0.203000
2.869000 0.191000 0.210000
2.929000 0.214000 0.237000
2.990000 0.035000 0.329000
2.985000 0.034000 0.319000
2.983000 0.033000 0.309000
2.912000 0.029000 0.282000
2.911000 0.028000 0.273000
2.904000 0.027000 0.263000
2.913000 0.026000 0.255000
2.962000 0.024000 0.240000
3.058000 0.021000 0.218000
3.050000 0.020000 0.207000
3.368000 -0.007000 -0.791000
3.277000 -0.006000 -0.781000
3.156000 -0.061000 0.083000
3.161000 -0.067000 0.092000
3.189000 -0.095000 0.027000
3.191000 -0.085000 0.024000
3.262000 -0.130000 -0.061000
3.330000 -0.124000 -0.240000
3.318000 -0.119000 -0.230000
3.314000 -0.114000 -0.220000
2.888000 0.089000 0.194000
2.867000 0.092000 0.201000
2.835000 0.095000 0.208000
2.843000 0.099000 0.217000
2.841000 0.102000 0.225000
2.846000 0.106000 0.234000
2.853000 0.110000 0.243000
2.853000 0.114000 0.252000
2.815000 0.119000 0.265000
2.818000 0.123000 0.274000
2.839000 0.127000 0.284000
2.896000 0.134000 0.299000
2.895000 0.137000 0.308000
2.865000 0.143000 0.322000
2.863000 0.146000 0.330000
2.861000 0.150000 0.339000
2.867000 0.153000 0.348000
2.876000 0.157000 0.358000
3.113000 -0.032000 0.146000
3.119000 -0.030000 0.137000
3.164000 -0.069000 0.050000
3.168000 -0.077000 0.056000
3.178000 -0.086000 0.062000
3.287000 -0.130000 -0.123000
3.294000 -0.138000 -0.131000
3.328000 -0.073000 -0.414000
3.305000 -0.070000 -0.400000
3.293000 -0.068000 -0.388000
3.061000 0.024000 0.207000
3.061000 0.025000 0.217000
2.949000 0.028000 0.248000
2.907000 0.029000 0.263000
2.908000 0.030000 0.272000
2.914000 0.031000 0.282000
2.923000 0.032000 0.293000
2.990000 0.034000 0.319000
2.987000 0.035000 0.328000
3.146000 -0.060000 0.101000
3.151000 -0.055000 0.093000
3.189000 -0.095000 0.030000
3.230000 -0.118000 -0.042000
2.868000 0.185000 0.299000
2.862000 0.179000 0.291000
2.882000 0.175000 0.285000
2.906000 0.171000 0.279000
2.885000 0.165000 0.269000
2.860000 0.158000 0.259000
2.861000 0.153000 0.251000
2.873000 0.149000 0.245000
2.904000 0.140000 0.231000
2.906000 0.135000 0.223000
2.913000 0.131000 0.216000
3.314000 -0.118000 -0.219000
3.322000 -0.123000 -0.229000
3.329000 -0.128000 -0.239000
3.122000 -0.025000 0.133000
3.116000 -0.027000 0.143000
3.120000 -0.029000 0.153000
3.160000 -0.071000 0.063000
3.204000 -0.102000 0.000000
3.278000 -0.124000 -0.096000
3.270000 -0.116000 -0.089000
2.883000 0.078000 0.323000
2.875000 0.075000 0.313000
2.938000 0.069000 0.292000
2.948000 0.067000 0.284000
2.986000 0.063000 0.269000
2.980000 0.061000 0.259000
2.905000 0.054000 0.234000
3.364000 -0.069000 -0.403000
3.362000 -0.070000 -0.413000
3.337000 -0.071000 -0.421000
3.337000 -0.072000 -0.432000
3.447000 -0.082000 -0.502000
3.433000 -0.083000 -0.511000
3.430000 -0.084000 -0.522000
3.157000 -0.052000 0.095000
3.146000 -0.057000 0.104000
3.177000 -0.085000 0.037000
3.311000 -0.131000 -0.190000
3.310000 -0.125000 -0.181000
3.310000 -0.118000 -0.172000
2.916000 0.137000 0.220000
2.912000 0.141000 0.228000
2.909000 0.146000 0.236000
2.905000 0.150000 0.244000
2.866000 0.158000 0.257000
2.882000 0.163000 0.266000
2.903000 0.169000 0.277000
2.888000 0.173000 0.283000
2.865000 0.176000 0.289000
2.867000 0.181000 0.297000
2.884000 0.187000 0.307000
3.091000 -0.015000 0.172000
3.098000 -0.014000 0.162000
3.162000 -0.067000 0.063000
3.165000 -0.074000 0.070000
3.201000 -0.090000 0.008000
3.271000 -0.124000 -0.090000
3.282000 -0.133000 -0.097000
2.910000 0.056000 0.227000
2.901000 0.058000 0.235000
2.976000 0.064000 0.260000
2.979000 0.066000 0.270000
2.979000 0.068000 0.280000
2.937000 0.071000 0.294000
2.879000 0.076000 0.316000
2.890000 0.078000 0.326000
3.136000 -0.051000 0.120000
3.136000 -0.047000 0.111000
3.184000 -0.087000 0.041000
2.918000 0.203000 0.251000
2.910000 0.196000 0.244000
2.862000 0.181000 0.225000
2.858000 0.175000 0.218000
2.852000 0.168000 0.210000
2.875000 0.164000 0.205000
2.906000 0.159000 0.200000
2.914000 0.154000 0.193000
3.314000 -0.124000 -0.172000
3.313000 -0.130000 -0.181000
3.103000 -0.010000 0.161000
3.099000 -0.010000 0.171000
3.101000 -0.011000 0.181000
3.162000 -0.071000 0.082000
3.158000 -0.065000 0.074000
3.200000 -0.098000 0.012000
3.257000 -0.119000 -0.070000
2.878000 0.134000 0.347000
2.865000 0.130000 0.337000
2.864000 0.126000 0.328000
2.859000 0.123000 0.319000
2.874000 0.120000 0.312000
2.862000 0.116000 0.302000
2.842000 0.111000 0.291000
2.822000 0.107000 0.281000
2.843000 0.104000 0.274000
2.881000 0.102000 0.269000
2.865000 0.098000 0.259000
2.853000 0.094000 0.249000
2.847000 0.090000 0.240000
2.842000 0.087000 0.231000
2.837000 0.083000 0.222000
2.837000 0.080000 0.214000
2.864000 0.077000 0.207000
2.881000 0.074000 0.200000
2.880000 0.071000 0.191000
3.453000 -0.113000 -0.365000
3.133000 -0.046000 0.117000
3.138000 -0.049000 0.127000
3.171000 -0.082000 0.049000
3.301000 -0.134000 -0.149000
3.298000 -0.126000 -0.141000
3.298000 -0.119000 -0.133000
2.916000 0.157000 0.192000
2.905000 0.162000 0.198000
2.855000 0.171000 0.209000
2.858000 0.177000 0.217000
2.862000 0.182000 0.225000
2.874000 0.189000 0.233000
2.900000 0.196000 0.243000
2.905000 0.203000 0.251000
2.926000 0.210000 0.260000
2.874000 0.217000 0.270000
2.909000 0.013000 0.278000
2.909000 0.013000 0.268000
2.905000 0.012000 0.258000
3.069000 0.008000 0.203000
3.076000 0.008000 0.194000
3.079000 0.007000 0.184000
3.164000 -0.063000 0.077000
3.162000 -0.069000 0.085000
3.192000 -0.090000 0.020000
3.329000 -0.118000 -0.261000
3.323000 -0.113000 -0.250000
3.333000 -0.108000 -0.241000
2.876000 0.076000 0.194000
2.872000 0.080000 0.203000
2.847000 0.082000 0.210000
2.844000 0.085000 0.218000
2.843000 0.088000 0.227000
2.853000 0.092000 0.236000
2.855000 0.095000 0.245000
2.859000 0.099000 0.255000
2.874000 0.102000 0.265000
2.892000 0.106000 0.275000
2.860000 0.108000 0.281000
2.844000 0.111000 0.288000
2.880000 0.115000 0.300000
2.879000 0.121000 0.318000
2.878000 0.124000 0.327000
2.871000 0.127000 0.335000
3.126000 -0.039000 0.139000
3.125000 -0.036000 0.129000
3.175000 -0.077000 0.049000
3.171000 -0.085000 0.055000
3.298000 -0.128000 -0.135000
3.304000 -0.135000 -0.143000
3.418000 -0.073000 -0.554000
3.428000 -0.071000 -0.545000
3.361000 -0.064000 -0.501000
3.340000 -0.062000 -0.487000
3.085000 0.012000 0.186000
3.071000 0.012000 0.196000
3.072000 0.013000 0.206000
2.907000 0.015000 0.261000
2.904000 0.015000 0.270000
2.916000 0.016000 0.280000
3.149000 -0.062000 0.093000
3.191000 -0.092000 0.024000
3.253000 -0.120000 -0.050000
2.869000 0.199000 0.360000
2.867000 0.194000 0.352000
2.858000 0.188000 0.343000
2.869000 0.165000 0.304000
2.857000 0.160000 0.294000
2.883000 0.156000 0.289000
2.895000 0.152000 0.282000
2.885000 0.147000 0.273000
2.879000 0.142000 0.264000
2.894000 0.138000 0.257000
2.919000 0.135000 0.251000
2.913000 0.130000 0.242000
2.905000 0.125000 0.234000
2.906000 0.120000 0.225000
3.327000 -0.118000 -0.252000
3.329000 -0.122000 -0.262000
3.121000 -0.031000 0.128000
3.121000 -0.034000 0.138000
3.169000 -0.077000 0.061000
3.293000 -0.130000 -0.112000
3.281000 -0.122000 -0.104000
3.252000 -0.113000 -0.097000
2.948000 0.055000 0.300000
2.951000 0.053000 0.291000
2.946000 0.051000 0.281000
2.932000 0.048000 0.270000
2.933000 0.047000 0.261000
2.925000 0.045000 0.251000
2.922000 0.043000 0.241000
3.029000 0.040000 0.231000
3.352000 -0.057000 -0.543000
3.340000 -0.057000 -0.552000
3.342000 -0.058000 -0.563000
3.345000 -0.059000 -0.575000
3.338000 -0.059000 -0.585000
3.368000 -0.062000 -0.645000
3.405000 -0.063000 -0.664000
3.461000 -0.065000 -0.686000
3.571000 -0.067000 -0.720000
3.162000 -0.055000 0.089000
3.155000 -0.061000 0.098000
3.187000 -0.090000 0.033000
3.247000 -0.126000 -0.048000
3.314000 -0.128000 -0.209000
3.313000 -0.123000 -0.200000
3.314000 -0.117000 -0.191000
2.906000 0.123000 0.224000
2.911000 0.127000 0.232000
2.914000 0.132000 0.241000
2.923000 0.137000 0.250000
2.914000 0.140000 0.258000
2.893000 0.144000 0.264000
2.877000 0.147000 0.271000
2.892000 0.152000 0.281000
2.893000 0.157000 0.290000
2.876000 0.160000 0.296000
2.900000 0.165000 0.307000
2.918000 0.171000 0.318000
2.858000 0.171000 0.320000
2.852000 0.175000 0.327000
2.851000 0.179000 0.336000
2.863000 0.184000 0.345000
2.866000 0.188000 0.354000
2.862000 0.192000 0.362000
2.879000 0.197000 0.373000
3.106000 -0.023000 0.165000
3.108000 -0.022000 0.155000
3.168000 -0.075000 0.063000
3.201000 -0.094000 0.004000
3.278000 -0.125000 -0.101000
3.288000 -0.133000 -0.108000
3.471000 -0.105000 -0.410000
3.364000 -0.095000 -0.376000
3.344000 -0.092000 -0.363000
3.042000 0.044000 0.226000
3.022000 0.045000 0.235000
2.956000 0.046000 0.239000
2.926000 0.047000 0.246000
2.922000 0.049000 0.255000
2.931000 0.050000 0.265000
2.923000 0.052000 0.274000
2.938000 0.054000 0.285000
2.963000 0.056000 0.297000
2.996000 0.058000 0.309000
2.990000 0.059000 0.319000
2.989000 0.061000 0.328000
3.144000 -0.055000 0.112000
3.150000 -0.050000 0.103000
3.185000 -0.085000 0.035000
3.195000 -0.095000 0.039000
2.870000 0.205000 0.283000
2.859000 0.199000 0.274000
2.903000 0.190000 0.264000
2.890000 0.184000 0.255000
2.861000 0.176000 0.245000
2.858000 0.170000 0.237000
2.861000 0.165000 0.230000
2.860000 0.159000 0.222000
2.907000 0.151000 0.211000
2.913000 0.145000 0.204000
3.314000 -0.124000 -0.193000
3.320000 -0.130000 -0.203000
3.111000 -0.016000 0.146000
3.106000 -0.018000 0.156000
3.106000 -0.019000 0.166000
3.160000 -0.072000 0.074000
3.194000 -0.104000 0.007000
3.263000 -0.120000 -0.079000
2.923000 0.103000 0.319000
2.931000 0.100000 0.311000
2.944000 0.097000 0.303000
2.955000 0.095000 0.295000
2.947000 0.091000 0.285000
2.857000 0.082000 0.259000
2.850000 0.079000 0.250000
2.865000 0.076000 0.242000
2.901000 0.074000 0.236000
2.904000 0.071000 0.228000
2.888000 0.068000 0.217000
2.887000 0.065000 0.208000
3.348000 -0.092000 -0.364000
3.349000 -0.094000 -0.375000
3.351000 -0.097000 -0.386000
3.454000 -0.104000 -0.420000
3.135000 -0.049000 0.109000
3.141000 -0.054000 0.119000
3.176000 -0.089000 0.047000
3.172000 -0.080000 0.042000
3.304000 -0.130000 -0.160000
3.306000 -0.123000 -0.152000
2.920000 0.149000 0.203000
2.906000 0.154000 0.210000
2.901000 0.159000 0.218000
2.861000 0.168000 0.230000
2.860000 0.173000 0.238000
2.862000 0.178000 0.245000
2.883000 0.185000 0.255000
2.901000 0.191000 0.264000
2.894000 0.196000 0.272000
2.864000 0.205000 0.284000
3.087000 -0.002000 0.190000
3.084000 -0.002000 0.180000
3.166000 -0.063000 0.069000
3.163000 -0.070000 0.077000
3.189000 -0.087000 0.015000
3.261000 -0.123000 -0.075000
3.332000 -0.114000 -0.292000
3.330000 -0.110000 -0.282000
3.331000 -0.106000 -0.272000
2.894000 0.071000 0.213000
2.895000 0.073000 0.222000
2.910000 0.077000 0.232000
2.904000 0.079000 0.240000
2.860000 0.083000 0.255000
2.875000 0.087000 0.265000
2.920000 0.091000 0.278000
2.953000 0.095000 0.291000
2.927000 0.096000 0.297000
2.918000 0.099000 0.305000
2.907000 0.101000 0.313000
2.910000 0.104000 0.323000
2.913000 0.107000 0.332000
3.127000 -0.045000 0.132000
3.130000 -0.041000 0.123000
3.170000 -0.075000 0.043000
3.178000 -0.084000 0.048000
2.864000 0.183000 0.196000
2.865000 0.177000 0.190000
3.304000 -0.131000 -0.155000
3.305000 -0.138000 -0.163000
3.353000 -0.057000 -0.650000
3.319000 -0.049000 -0.589000
3.341000 -0.048000 -0.582000
3.378000 -0.047000 -0.578000
3.493000 -0.047000 -0.586000
3.087000 0.002000 0.172000
3.087000 0.002000 0.182000
3.089000 0.002000 0.193000
3.154000 -0.064000 0.085000
3.194000 -0.088000 0.018000
3.196000 -0.099000 0.020000
3.260000 -0.123000 -0.059000
2.867000 0.177000 0.366000
2.864000 0.173000 0.357000
2.865000 0.169000 0.349000
2.862000 0.164000 0.340000
2.857000 0.159000 0.331000
2.857000 0.155000 0.323000
2.873000 0.152000 0.317000
2.901000 0.149000 0.311000
2.920000 0.145000 0.305000
2.888000 0.139000 0.293000
2.850000 0.133000 0.281000
2.856000 0.129000 0.273000
2.839000 0.124000 0.263000
2.827000 0.120000 0.254000
2.857000 0.113000 0.240000
2.861000 0.109000 0.232000
2.851000 0.104000 0.223000
2.835000 0.099000 0.213000
3.329000 -0.110000 -0.273000
3.330000 -0.114000 -0.283000
3.131000 -0.037000 0.121000
3.129000 -0.040000 0.131000
3.172000 -0.076000 0.054000
3.197000 -0.104000 -0.011000
3.289000 -0.128000 -0.122000
3.288000 -0.120000 -0.115000
2.920000 0.172000 0.180000
2.863000 0.181000 0.190000
2.866000 0.188000 0.197000
2.989000 0.043000 0.331000
2.984000 0.042000 0.321000
2.985000 0.040000 0.311000
2.961000 0.038000 0.299000
2.914000 0.036000 0.285000
2.914000 0.035000 0.276000
2.913000 0.034000 0.266000
2.921000 0.032000 0.257000
2.934000 0.031000 0.249000
2.951000 0.030000 0.241000
3.013000 0.029000 0.236000
3.046000 0.028000 0.229000
3.052000 0.027000 0.220000
3.049000 0.025000 0.210000
3.636000 -0.030000 -0.777000
3.502000 -0.028000 -0.760000
3.429000 -0.027000 -0.756000
3.373000 -0.027000 -0.755000
3.299000 -0.026000 -0.749000
3.285000 -0.024000 -0.779000
3.160000 -0.063000 0.090000
3.187000 -0.088000 0.027000
3.221000 -0.116000 -0.052000
3.252000 -0.127000 -0.056000
3.318000 -0.126000 -0.231000
3.319000 -0.121000 -0.221000
3.320000 -0.116000 -0.212000
2.840000 0.106000 0.219000
2.862000 0.111000 0.229000
2.850000 0.114000 0.237000
2.869000 0.119000 0.247000
2.831000 0.121000 0.252000
2.832000 0.125000 0.261000
2.847000 0.129000 0.270000
2.835000 0.133000 0.278000
2.858000 0.137000 0.289000
2.902000 0.143000 0.302000
2.896000 0.147000 0.310000
2.864000 0.153000 0.324000
2.860000 0.156000 0.332000
2.859000 0.160000 0.340000
2.865000 0.164000 0.349000
2.868000 0.168000 0.359000
3.111000 -0.029000 0.150000
3.116000 -0.027000 0.140000
3.158000 -0.065000 0.050000
3.169000 -0.074000 0.056000
3.172000 -0.082000 0.062000
3.283000 -0.131000 -0.118000
3.431000 -0.089000 -0.437000
3.450000 -0.087000 -0.429000
3.451000 -0.085000 -0.418000
3.314000 -0.076000 -0.380000
3.301000 -0.074000 -0.368000
3.298000 -0.071000 -0.357000
3.319000 -0.069000 -0.349000
3.054000 0.030000 0.214000
3.051000 0.032000 0.224000
3.048000 0.033000 0.234000
2.944000 0.034000 0.245000
2.927000 0.035000 0.253000
2.918000 0.036000 0.261000
2.915000 0.037000 0.270000
2.911000 0.038000 0.280000
2.923000 0.039000 0.290000
2.986000 0.042000 0.316000
2.992000 0.043000 0.326000
2.998000 0.044000 0.336000
3.146000 -0.058000 0.105000
3.148000 -0.053000 0.096000
3.184000 -0.091000 0.032000
2.874000 0.194000 0.297000
2.863000 0.188000 0.289000
2.871000 0.183000 0.282000
2.896000 0.179000 0.276000
2.889000 0.174000 0.268000
2.857000 0.161000 0.250000
2.856000 0.156000 0.242000
2.857000 0.151000 0.234000
2.902000 0.142000 0.222000
2.913000 0.138000 0.215000
3.319000 -0.122000 -0.213000
3.316000 -0.127000 -0.223000
3.118000 -0.023000 0.140000
3.111000 -0.025000 0.150000
3.108000 -0.026000 0.160000
3.162000 -0.072000 0.066000
3.206000 -0.100000 0.002000
3.274000 -0.120000 -0.088000
2.889000 0.087000 0.324000
2.882000 0.084000 0.314000
2.898000 0.082000 0.307000
2.915000 0.080000 0.300000
2.930000 0.072000 0.274000
2.920000 0.069000 0.264000
2.938000 0.067000 0.256000
2.946000 0.064000 0.248000
2.891000 0.058000 0.225000
3.358000 -0.075000 -0.376000
3.319000 -0.075000 -0.382000
3.275000 -0.076000 -0.388000
3.339000 -0.079000 -0.406000
3.434000 -0.084000 -0.428000
3.489000 -0.087000 -0.447000
3.449000 -0.089000 -0.464000
3.482000 -0.092000 -0.480000
3.548000 -0.095000 -0.500000
3.708000 -0.101000 -0.535000
3.144000 -0.053000 0.103000
3.152000 -0.058000 0.112000
3.180000 -0.086000 0.040000
3.216000 -0.119000 -0.035000
3.312000 -0.124000 -0.171000
3.305000 -0.118000 -0.162000
2.908000 0.141000 0.214000
2.909000 0.146000 0.222000
2.902000 0.150000 0.230000
2.855000 0.158000 0.242000
2.860000 0.163000 0.250000
2.863000 0.168000 0.259000
2.901000 0.180000 0.278000
2.861000 0.187000 0.290000
2.868000 0.193000 0.299000
3.090000 -0.011000 0.184000
3.097000 -0.011000 0.175000
3.089000 -0.010000 0.164000
3.165000 -0.071000 0.070000
3.196000 -0.092000 0.011000
3.271000 -0.124000 -0.085000
3.719000 -0.125000 -0.371000
3.304000 -0.103000 -0.310000
3.308000 -0.100000 -0.300000
2.903000 0.061000 0.222000
2.893000 0.063000 0.230000
2.968000 0.070000 0.255000
2.959000 0.072000 0.264000
2.973000 0.074000 0.274000
2.958000 0.076000 0.282000
2.910000 0.082000 0.305000
2.882000 0.085000 0.321000
3.136000 -0.049000 0.124000
3.132000 -0.046000 0.115000
3.182000 -0.082000 0.041000
3.181000 -0.092000 0.046000
2.922000 0.205000 0.242000
2.930000 0.199000 0.236000
2.865000 0.182000 0.216000
2.854000 0.175000 0.209000
2.853000 0.169000 0.202000
2.911000 0.160000 0.191000
2.911000 0.154000 0.184000
3.307000 -0.126000 -0.166000
3.309000 -0.133000 -0.175000
3.387000 -0.035000 -0.777000
3.296000 -0.032000 -0.745000
3.306000 -0.030000 -0.725000
3.352000 -0.029000 -0.724000
3.394000 -0.029000 -0.722000
3.500000 -0.028000 -0.733000
3.099000 -0.006000 0.168000
3.096000 -0.007000 0.178000
3.162000 -0.071000 0.086000
3.159000 -0.065000 0.078000
3.198000 -0.095000 0.014000
3.256000 -0.123000 -0.068000
2.871000 0.147000 0.353000
2.862000 0.143000 0.344000
2.859000 0.139000 0.335000
2.854000 0.135000 0.325000
2.858000 0.131000 0.317000
2.869000 0.128000 0.310000
2.855000 0.120000 0.292000
2.823000 0.114000 0.280000
2.812000 0.110000 0.270000
2.824000 0.107000 0.263000
2.850000 0.104000 0.257000
2.854000 0.101000 0.249000
2.852000 0.097000 0.240000
2.847000 0.093000 0.231000
2.843000 0.089000 0.222000
2.832000 0.086000 0.213000
2.845000 0.082000 0.206000
2.880000 0.076000 0.191000
3.137000 -0.042000 0.116000
3.131000 -0.045000 0.125000
3.168000 -0.083000 0.052000
3.167000 -0.074000 0.046000
3.301000 -0.132000 -0.140000
3.293000 -0.124000 -0.132000
2.917000 0.160000 0.186000
2.915000 0.165000 0.193000
2.856000 0.174000 0.203000
2.857000 0.180000 0.211000
2.862000 0.186000 0.218000
2.874000 0.193000 0.226000
2.918000 0.208000 0.245000
2.923000 0.214000 0.252000
2.999000 0.025000 0.328000
2.929000 0.021000 0.292000
2.915000 0.020000 0.281000
2.903000 0.019000 0.270000
2.906000 0.018000 0.261000
2.916000 0.017000 0.253000
3.062000 0.014000 0.216000
3.066000 0.013000 0.206000
3.075000 0.012000 0.197000
3.159000 -0.065000 0.084000
3.193000 -0.093000 0.023000
3.260000 -0.130000 -0.067000
3.326000 -0.120000 -0.251000
3.328000 -0.115000 -0.241000
3.318000 -0.110000 -0.231000
2.885000 0.080000 0.191000
2.874000 0.083000 0.199000
2.836000 0.089000 0.213000
2.845000 0.093000 0.222000
2.847000 0.096000 0.231000
2.854000 0.100000 0.240000
2.859000 0.103000 0.249000
2.869000 0.107000 0.259000
2.859000 0.110000 0.267000
2.826000 0.115000 0.281000
2.847000 0.120000 0.292000
2.877000 0.124000 0.304000
2.875000 0.127000 0.312000
2.863000 0.130000 0.320000
2.865000 0.133000 0.329000
2.869000 0.137000 0.338000
2.876000 0.141000 0.348000
3.118000 -0.036000 0.142000
3.121000 -0.034000 0.132000
3.173000 -0.073000 0.050000
3.174000 -0.082000 0.055000
3.293000 -0.129000 -0.130000
3.295000 -0.137000 -0.138000
3.418000 -0.080000 -0.521000
3.430000 -0.078000 -0.512000
3.445000 -0.076000 -0.503000
3.068000 0.017000 0.193000
3.068000 0.017000 0.203000
3.069000 0.018000 0.213000
2.924000 0.020000 0.250000
2.910000 0.021000 0.259000
2.911000 0.022000 0.268000
2.913000 0.022000 0.278000
3.150000 -0.061000 0.096000
3.190000 -0.090000 0.026000
2.879000 0.179000 0.311000
2.864000 0.173000 0.301000
2.856000 0.167000 0.292000
2.898000 0.160000 0.281000
2.886000 0.154000 0.271000
2.875000 0.149000 0.262000
2.877000 0.144000 0.254000
2.909000 0.136000 0.241000
2.907000 0.131000 0.233000
2.910000 0.126000 0.225000
3.324000 -0.118000 -0.237000
3.327000 -0.123000 -0.247000
3.331000 -0.127000 -0.257000
3.121000 -0.030000 0.136000
3.128000 -0.033000 0.146000
3.165000 -0.078000 0.064000
3.281000 -0.126000 -0.104000
3.280000 -0.118000 -0.097000
2.882000 0.067000 0.321000
2.943000 0.059000 0.291000
2.953000 0.057000 0.282000
2.956000 0.055000 0.273000
2.949000 0.053000 0.263000
2.945000 0.051000 0.254000
2.920000 0.048000 0.242000
2.929000 0.046000 0.233000
3.358000 -0.064000 -0.485000
3.344000 -0.065000 -0.494000
3.352000 -0.066000 -0.506000
3.432000 -0.070000 -0.552000
3.422000 -0.071000 -0.562000
3.399000 -0.071000 -0.569000
3.425000 -0.073000 -0.585000
3.467000 -0.074000 -0.603000
3.528000 -0.077000 -0.625000
3.536000 -0.078000 -0.639000
3.150000 -0.057000 0.097000
3.185000 -0.082000 0.032000
3.237000 -0.125000 -0.045000
3.313000 -0.128000 -0.198000
3.311000 -0.122000 -0.189000
3.311000 -0.116000 -0.180000
2.915000 0.127000 0.220000
2.913000 0.132000 0.228000
2.909000 0.136000 0.236000
2.911000 0.141000 0.245000
2.915000 0.145000 0.253000
2.884000 0.153000 0.267000
2.901000 0.158000 0.277000
2.898000 0.163000 0.285000
2.867000 0.170000 0.299000
2.885000 0.175000 0.309000
2.867000 0.191000 0.340000
2.867000 0.196000 0.349000
2.866000 0.200000 0.357000
2.877000 0.205000 0.367000
3.107000 -0.020000 0.167000
3.109000 -0.019000 0.157000
3.170000 -0.072000 0.064000
3.171000 -0.080000 0.071000
3.200000 -0.095000 0.006000
3.273000 -0.125000 -0.097000
3.289000 -0.134000 -0.104000
3.458000 -0.107000 -0.386000
3.423000 -0.100000 -0.361000
2.923000 0.052000 0.243000
2.935000 0.054000 0.253000
2.943000 0.056000 0.263000
2.939000 0.058000 0.272000
2.959000 0.060000 0.284000
2.943000 0.061000 0.292000
2.887000 0.067000 0.323000
3.139000 -0.053000 0.115000
3.137000 -0.049000 0.106000
3.188000 -0.092000 0.040000
2.869000 0.207000 0.272000
2.908000 0.198000 0.261000
2.897000 0.191000 0.253000
2.872000 0.184000 0.243000
2.861000 0.177000 0.235000
2.862000 0.171000 0.228000
2.856000 0.165000 0.220000
2.872000 0.160000 0.214000
2.907000 0.157000 0.209000
2.911000 0.151000 0.202000
3.310000 -0.121000 -0.179000
3.309000 -0.127000 -0.188000
3.319000 -0.133000 -0.198000
3.106000 -0.014000 0.155000
3.103000 -0.015000 0.165000
3.106000 -0.016000 0.175000
3.160000 -0.071000 0.076000
3.200000 -0.103000 0.010000
3.256000 -0.122000 -0.076000
2.926000 0.107000 0.308000
2.903000 0.100000 0.288000
2.886000 0.092000 0.269000
2.855000 0.088000 0.257000
2.852000 0.085000 0.248000
2.846000 0.082000 0.239000
2.853000 0.079000 0.231000
2.877000 0.076000 0.224000
2.883000 0.073000 0.216000
2.880000 0.070000 0.207000
2.880000 0.067000 0.198000
3.380000 -0.101000 -0.365000
3.449000 -0.106000 -0.384000
3.395000 -0.107000 -0.388000
3.500000 -0.113000 -0.412000
3.136000 -0.047000 0.110000
3.143000 -0.051000 0.120000
3.176000 -0.089000 0.049000
3.167000 -0.079000 0.044000
3.308000 -0.134000 -0.159000
3.304000 -0.127000 -0.150000
3.300000 -0.120000 -0.142000
2.914000 0.153000 0.198000
2.906000 0.158000 0.205000
2.890000 0.162000 0.212000
2.859000 0.166000 0.217000
2.857000 0.172000 0.225000
2.864000 0.177000 0.233000
2.863000 0.183000 0.240000
2.901000 0.196000 0.259000
2.901000 0.202000 0.267000
2.864000 0.210000 0.278000
2.907000 0.004000 0.266000
2.915000 0.004000 0.257000
3.076000 0.002000 0.201000
3.078000 0.002000 0.191000
3.086000 0.001000 0.182000
3.162000 -0.067000 0.077000
3.175000 -0.074000 0.085000
3.196000 -0.088000 0.017000
3.329000 -0.117000 -0.281000
3.330000 -0.113000 -0.271000
3.324000 -0.108000 -0.261000
2.881000 0.068000 0.191000
2.882000 0.071000 0.200000
2.884000 0.075000 0.209000
2.883000 0.078000 0.217000
2.872000 0.080000 0.225000
2.853000 0.083000 0.233000
2.849000 0.085000 0.241000
2.855000 0.088000 0.251000
2.859000 0.092000 0.260000
2.950000 0.100000 0.286000
2.942000 0.103000 0.295000
2.942000 0.106000 0.304000
2.949000 0.109000 0.314000
3.128000 -0.042000 0.135000
3.122000 -0.039000 0.125000
3.404000 -0.044000 -0.756000
3.333000 -0.041000 -0.729000
3.317000 -0.036000 -0.682000
3.403000 -0.035000 -0.677000
3.513000 -0.034000 -0.687000
3.096000 -0.004000 0.169000
3.092000 -0.004000 0.179000
3.159000 -0.069000 0.086000
3.155000 -0.063000 0.078000
3.197000 -0.095000 0.016000
3.264000 -0.124000 -0.066000
3.225000 -0.114000 -0.060000
2.876000 0.157000 0.360000
2.864000 0.152000 0.350000
2.859000 0.148000 0.341000
2.862000 0.144000 0.333000
2.860000 0.140000 0.324000
2.866000 0.136000 0.317000
2.883000 0.133000 0.310000
2.899000 0.130000 0.303000
2.828000 0.119000 0.279000
2.815000 0.115000 0.269000
2.815000 0.111000 0.261000
2.838000 0.108000 0.255000
2.853000 0.105000 0.248000
2.845000 0.101000 0.238000
2.846000 0.097000 0.230000
2.840000 0.093000 0.221000
2.838000 0.089000 0.213000
2.847000 0.086000 0.205000
2.884000 0.079000 0.190000
3.332000 -0.105000 -0.293000
3.134000 -0.040000 0.116000
3.133000 -0.043000 0.125000
3.174000 -0.082000 0.053000
3.172000 -0.073000 0.048000
3.174000 -0.065000 0.042000
3.303000 -0.134000 -0.138000
3.291000 -0.126000 -0.130000
3.292000 -0.119000 -0.123000
2.920000 0.163000 0.184000
2.920000 0.169000 0.191000
2.856000 0.177000 0.201000
2.861000 0.183000 0.208000
2.865000 0.190000 0.216000
2.931000 0.206000 0.235000
2.929000 0.212000 0.243000
3.001000 0.031000 0.337000
2.987000 0.029000 0.326000
2.992000 0.028000 0.316000
2.975000 0.027000 0.305000
2.920000 0.025000 0.290000
2.911000 0.024000 0.279000
2.912000 0.023000 0.270000
2.911000 0.022000 0.261000
2.920000 0.021000 0.252000
3.061000 0.017000 0.215000
3.064000 0.016000 0.205000
3.160000 -0.064000 0.085000
3.196000 -0.092000 0.025000
3.326000 -0.119000 -0.239000
3.320000 -0.114000 -0.229000
2.886000 0.083000 0.190000
2.880000 0.087000 0.198000
2.836000 0.093000 0.212000
2.842000 0.096000 0.221000
2.847000 0.100000 0.230000
2.858000 0.104000 0.239000
2.862000 0.108000 0.248000
2.860000 0.111000 0.257000
2.836000 0.114000 0.263000
2.818000 0.116000 0.270000
2.824000 0.120000 0.279000
2.899000 0.130000 0.304000
2.876000 0.133000 0.310000
2.868000 0.136000 0.318000
2.864000 0.139000 0.326000
2.868000 0.142000 0.336000
2.870000 0.146000 0.345000
2.879000 0.150000 0.355000
3.115000 -0.034000 0.142000
3.120000 -0.031000 0.132000
3.161000 -0.065000 0.045000
3.171000 -0.073000 0.051000
3.175000 -0.082000 0.057000
3.297000 -0.131000 -0.128000
3.290000 -0.138000 -0.135000
3.428000 -0.081000 -0.489000
3.276000 -0.076000 -0.457000
3.336000 -0.071000 -0.433000
3.318000 -0.068000 -0.420000
3.326000 -0.066000 -0.411000
3.348000 -0.064000 -0.403000
3.068000 0.021000 0.202000
3.068000 0.021000 0.212000
2.929000 0.024000 0.250000
2.912000 0.025000 0.258000
2.907000 0.026000 0.267000
2.907000 0.026000 0.276000
2.922000 0.027000 0.287000
3.000000 0.030000 0.324000
3.001000 0.031000 0.334000
3.149000 -0.060000 0.098000
3.174000 -0.081000 0.049000
3.182000 -0.090000 0.054000
3.297000 -0.126000 -0.142000
3.305000 -0.133000 -0.150000
3.391000 -0.066000 -0.614000
3.389000 -0.064000 -0.603000
3.381000 -0.062000 -0.590000
3.372000 -0.060000 -0.578000
3.329000 -0.056000 -0.549000
3.333000 -0.054000 -0.539000
3.083000 0.006000 0.180000
3.087000 0.006000 0.190000
3.081000 0.006000 0.200000
2.923000 0.007000 0.256000
2.910000 0.007000 0.264000
3.153000 -0.063000 0.088000
3.193000 -0.096000 0.022000
3.222000 -0.115000 -0.052000
2.862000 0.186000 0.363000
2.862000 0.181000 0.355000
2.863000 0.177000 0.347000
2.857000 0.172000 0.338000
2.848000 0.167000 0.329000
2.853000 0.163000 0.321000
2.905000 0.157000 0.310000
2.894000 0.152000 0.301000
2.908000 0.148000 0.294000
2.887000 0.142000 0.283000
2.865000 0.137000 0.273000
2.903000 0.134000 0.268000
2.919000 0.126000 0.253000
2.912000 0.121000 0.244000
2.897000 0.116000 0.234000
2.903000 0.112000 0.227000
3.332000 -0.112000 -0.258000
3.329000 -0.116000 -0.268000
3.328000 -0.120000 -0.278000
3.128000 -0.036000 0.129000
3.122000 -0.039000 0.139000
3.172000 -0.077000 0.057000
3.216000 -0.101000 -0.008000
3.287000 -0.125000 -0.115000
3.285000 -0.118000 -0.107000
2.985000 0.049000 0.323000
2.974000 0.047000 0.312000
2.974000 0.046000 0.303000
2.925000 0.042000 0.279000
2.918000 0.040000 0.269000
2.919000 0.038000 0.260000
2.921000 0.037000 0.251000
2.925000 0.035000 0.241000
3.038000 0.033000 0.231000
3.042000 0.032000 0.222000
3.406000 -0.043000 -0.644000
3.379000 -0.043000 -0.651000
3.356000 -0.043000 -0.657000
3.343000 -0.043000 -0.666000
3.329000 -0.042000 -0.674000
3.310000 -0.042000 -0.681000
3.329000 -0.042000 -0.729000
3.370000 -0.043000 -0.750000
3.440000 -0.044000 -0.777000
3.158000 -0.059000 0.089000
3.157000 -0.064000 0.097000
3.187000 -0.090000 0.030000
3.252000 -0.126000 -0.053000
3.317000 -0.127000 -0.221000
3.314000 -0.121000 -0.211000
3.318000 -0.116000 -0.202000
2.890000 0.116000 0.227000
2.890000 0.120000 0.236000
2.912000 0.125000 0.246000
2.927000 0.130000 0.256000
2.935000 0.134000 0.265000
2.869000 0.139000 0.276000
2.902000 0.145000 0.288000
2.920000 0.150000 0.298000
2.907000 0.153000 0.306000
2.884000 0.156000 0.312000
2.858000 0.158000 0.317000
2.850000 0.162000 0.325000
2.852000 0.166000 0.334000
2.862000 0.170000 0.343000
2.859000 0.174000 0.351000
2.861000 0.178000 0.360000
3.116000 -0.028000 0.164000
3.107000 -0.026000 0.153000
3.116000 -0.025000 0.144000
3.156000 -0.062000 0.049000
3.176000 -0.070000 0.056000
3.168000 -0.078000 0.062000
3.207000 -0.093000 0.001000
3.284000 -0.122000 -0.105000
3.288000 -0.130000 -0.113000
3.427000 -0.094000 -0.418000
3.429000 -0.091000 -0.407000
3.383000 -0.085000 -0.381000
3.274000 -0.079000 -0.358000
3.263000 -0.074000 -0.336000
3.047000 0.036000 0.219000
3.036000 0.037000 0.228000
2.924000 0.040000 0.247000
2.924000 0.041000 0.257000
2.919000 0.042000 0.266000
2.919000 0.043000 0.275000
2.919000 0.045000 0.285000
2.980000 0.048000 0.310000
2.981000 0.049000 0.320000
2.981000 0.051000 0.329000
3.147000 -0.058000 0.110000
3.141000 -0.053000 0.101000
3.187000 -0.086000 0.032000
3.196000 -0.096000 0.036000
2.861000 0.196000 0.288000
2.853000 0.190000 0.279000
2.896000 0.182000 0.268000
2.880000 0.175000 0.259000
2.858000 0.168000 0.249000
2.857000 0.163000 0.242000
2.852000 0.157000 0.234000
2.856000 0.152000 0.226000
2.905000 0.144000 0.215000
2.907000 0.138000 0.207000
3.313000 -0.119000 -0.197000
3.319000 -0.124000 -0.207000
3.319000 -0.130000 -0.217000
3.116000 -0.021000 0.147000
3.108000 -0.023000 0.157000
3.160000 -0.073000 0.071000
3.274000 -0.125000 -0.088000
3.264000 -0.116000 -0.082000
2.907000 0.095000 0.328000
2.902000 0.092000 0.318000
2.904000 0.089000 0.309000
2.910000 0.087000 0.301000
2.924000 0.084000 0.293000
2.894000 0.078000 0.272000
2.876000 0.075000 0.262000
2.859000 0.071000 0.251000
2.895000 0.069000 0.245000
2.922000 0.067000 0.238000
2.897000 0.064000 0.227000
2.890000 0.061000 0.218000
2.892000 0.058000 0.209000
3.339000 -0.075000 -0.336000
3.284000 -0.076000 -0.341000
3.270000 -0.077000 -0.350000
3.266000 -0.079000 -0.360000
3.413000 -0.087000 -0.398000
3.463000 -0.090000 -0.415000
3.455000 -0.092000 -0.425000
3.439000 -0.094000 -0.434000
3.462000 -0.097000 -0.448000
3.567000 -0.102000 -0.473000
3.144000 -0.049000 0.101000
3.147000 -0.054000 0.110000
3.178000 -0.089000 0.043000
3.172000 -0.080000 0.039000
3.312000 -0.131000 -0.172000
3.308000 -0.124000 -0.163000
2.913000 0.143000 0.208000
2.910000 0.148000 0.216000
2.896000 0.153000 0.223000
2.855000 0.161000 0.235000
2.860000 0.166000 0.244000
2.862000 0.171000 0.252000
2.901000 0.184000 0.271000
2.876000 0.187000 0.277000
2.855000 0.191000 0.282000
2.861000 0.196000 0.291000
3.095000 -0.007000 0.189000
3.092000 -0.007000 0.179000
3.089000 -0.007000 0.169000
3.169000 -0.066000 0.068000
3.163000 -0.073000 0.075000
3.204000 -0.087000 0.012000
3.270000 -0.130000 -0.085000
3.317000 -0.112000 -0.314000
3.306000 -0.108000 -0.303000
3.333000 -0.105000 -0.295000
3.329000 -0.101000 -0.284000
2.899000 0.064000 0.216000
2.889000 0.066000 0.224000
2.913000 0.070000 0.235000
2.925000 0.072000 0.245000
2.891000 0.074000 0.251000
2.889000 0.076000 0.260000
2.910000 0.087000 0.299000
2.892000 0.089000 0.306000
2.887000 0.091000 0.315000
2.894000 0.093000 0.325000
3.126000 -0.045000 0.120000
3.174000 -0.077000 0.041000
3.179000 -0.086000 0.046000
2.865000 0.177000 0.202000
2.852000 0.170000 0.194000
2.882000 0.165000 0.189000
2.913000 0.161000 0.184000
3.307000 -0.127000 -0.160000
3.311000 -0.134000 -0.168000
3.487000 -0.049000 -0.769000
3.358000 -0.046000 -0.729000
3.303000 -0.043000 -0.707000
3.320000 -0.038000 -0.666000
3.355000 -0.038000 -0.662000
3.402000 -0.037000 -0.660000
3.517000 -0.037000 -0.671000
3.088000 -0.003000 0.173000
3.087000 -0.003000 0.183000
3.155000 -0.066000 0.083000
3.200000 -0.100000 0.017000
3.253000 -0.120000 -0.063000
2.878000 0.162000 0.365000
2.863000 0.157000 0.354000
2.862000 0.153000 0.346000
2.857000 0.149000 0.337000
2.859000 0.145000 0.329000
2.856000 0.140000 0.320000
2.866000 0.137000 0.313000
2.877000 0.129000 0.297000
2.841000 0.124000 0.285000
2.830000 0.119000 0.275000
2.828000 0.115000 0.267000
2.809000 0.111000 0.257000
2.827000 0.108000 0.250000
2.844000 0.104000 0.243000
2.851000 0.101000 0.235000
2.846000 0.097000 0.226000
2.834000 0.093000 0.217000
2.837000 0.089000 0.209000
2.886000 0.083000 0.195000
3.327000 -0.105000 -0.286000
3.134000 -0.040000 0.119000
3.137000 -0.044000 0.129000
3.175000 -0.079000 0.052000
3.302000 -0.133000 -0.135000
3.291000 -0.125000 -0.127000
3.286000 -0.117000 -0.120000
2.921000 0.165000 0.185000
2.852000 0.173000 0.194000
2.860000 0.180000 0.202000
2.870000 0.187000 0.210000
2.924000 0.209000 0.235000
2.993000 0.032000 0.334000
2.983000 0.031000 0.323000
2.981000 0.030000 0.313000
2.969000 0.028000 0.302000
2.905000 0.026000 0.277000
2.909000 0.025000 0.268000
2.913000 0.023000 0.259000
2.923000 0.022000 0.250000
3.057000 0.019000 0.222000
3.059000 0.018000 0.212000
3.060000 0.017000 0.203000
3.299000 0.002000 -0.792000
3.159000 -0.065000 0.087000
3.184000 -0.090000 0.025000
3.253000 -0.125000 -0.060000
3.318000 -0.119000 -0.235000
3.323000 -0.114000 -0.226000
2.880000 0.085000 0.191000
2.875000 0.089000 0.199000
2.840000 0.095000 0.214000
2.844000 0.099000 0.223000
2.845000 0.102000 0.231000
2.846000 0.106000 0.240000
2.845000 0.109000 0.248000
2.823000 0.112000 0.255000
2.813000 0.115000 0.262000
2.816000 0.119000 0.271000
2.831000 0.123000 0.281000
2.868000 0.128000 0.293000
2.892000 0.132000 0.305000
2.863000 0.134000 0.310000
2.859000 0.138000 0.319000
2.858000 0.141000 0.327000
2.858000 0.144000 0.336000
2.864000 0.148000 0.345000
2.875000 0.152000 0.355000
3.120000 -0.035000 0.150000
3.112000 -0.032000 0.140000
3.123000 -0.030000 0.130000
3.174000 -0.066000 0.047000
3.171000 -0.075000 0.053000
3.175000 -0.083000 0.059000
3.292000 -0.126000 -0.122000
3.301000 -0.134000 -0.130000
3.267000 -0.075000 -0.442000
3.348000 -0.073000 -0.432000
3.315000 -0.070000 -0.417000
3.314000 -0.068000 -0.407000
3.311000 -0.065000 -0.396000
3.067000 0.022000 0.204000
3.058000 0.023000 0.213000
3.057000 0.024000 0.223000
2.960000 0.025000 0.245000
2.912000 0.026000 0.260000
2.907000 0.027000 0.269000
2.908000 0.028000 0.278000
2.918000 0.029000 0.289000
2.991000 0.031000 0.315000
2.988000 0.032000 0.325000
2.998000 0.032000 0.335000
3.147000 -0.058000 0.096000
3.190000 -0.089000 0.028000
2.875000 0.185000 0.307000
2.861000 0.179000 0.298000
2.853000 0.174000 0.289000
2.898000 0.166000 0.278000
2.876000 0.160000 0.268000
2.854000 0.154000 0.258000
2.858000 0.149000 0.250000
2.864000 0.144000 0.243000
2.907000 0.136000 0.230000
2.906000 0.131000 0.222000
2.914000 0.127000 0.215000
3.328000 -0.118000 -0.224000
3.324000 -0.123000 -0.234000
3.331000 -0.128000 -0.244000
3.117000 -0.027000 0.136000
3.115000 -0.029000 0.145000
3.166000 -0.077000 0.066000
3.170000 -0.069000 0.060000
3.290000 -0.130000 -0.102000
3.274000 -0.120000 -0.095000
2.882000 0.074000 0.321000
2.884000 0.072000 0.312000
2.938000 0.066000 0.290000
2.947000 0.064000 0.282000
2.981000 0.060000 0.266000
2.970000 0.057000 0.256000
2.899000 0.051000 0.232000
3.351000 -0.069000 -0.437000
3.438000 -0.076000 -0.493000
3.467000 -0.078000 -0.509000
3.456000 -0.079000 -0.518000
3.437000 -0.080000 -0.527000
3.434000 -0.081000 -0.538000
3.149000 -0.054000 0.097000
3.152000 -0.059000 0.106000
3.183000 -0.093000 0.039000
3.185000 -0.084000 0.035000
3.317000 -0.129000 -0.190000
3.310000 -0.122000 -0.181000
3.302000 -0.116000 -0.172000
2.916000 0.130000 0.214000
2.913000 0.135000 0.222000
2.907000 0.140000 0.230000
2.909000 0.144000 0.238000
2.891000 0.148000 0.245000
2.863000 0.151000 0.251000
2.868000 0.156000 0.259000
2.886000 0.162000 0.269000
2.899000 0.167000 0.279000
2.883000 0.171000 0.285000
2.855000 0.174000 0.291000
2.861000 0.179000 0.300000
2.872000 0.206000 0.350000
3.106000 -0.016000 0.172000
3.100000 -0.016000 0.161000
3.171000 -0.068000 0.062000
3.168000 -0.075000 0.069000
3.201000 -0.090000 0.007000
3.286000 -0.132000 -0.098000
3.461000 -0.107000 -0.358000
3.442000 -0.103000 -0.346000
2.919000 0.054000 0.227000
2.904000 0.056000 0.235000
2.970000 0.061000 0.259000
2.971000 0.063000 0.268000
2.972000 0.065000 0.278000
2.948000 0.067000 0.285000
2.933000 0.068000 0.293000
2.879000 0.073000 0.315000
2.880000 0.074000 0.325000
3.140000 -0.053000 0.122000
3.138000 -0.049000 0.112000
3.184000 -0.085000 0.039000
3.189000 -0.094000 0.043000
2.911000 0.202000 0.254000
2.907000 0.195000 0.246000
2.887000 0.188000 0.237000
2.859000 0.180000 0.228000
2.859000 0.174000 0.221000
2.857000 0.168000 0.213000
2.867000 0.163000 0.207000
2.908000 0.153000 0.195000
3.306000 -0.128000 -0.180000
3.313000 -0.134000 -0.189000
3.111000 -0.011000 0.159000
3.098000 -0.011000 0.168000
3.095000 -0.012000 0.178000
3.163000 -0.067000 0.075000
3.200000 -0.096000 0.011000
3.261000 -0.121000 -0.072000
2.877000 0.130000 0.342000
2.873000 0.126000 0.333000
2.875000 0.122000 0.324000
2.876000 0.119000 0.316000
2.860000 0.111000 0.297000
2.838000 0.107000 0.286000
2.859000 0.104000 0.280000
2.905000 0.102000 0.275000
2.875000 0.097000 0.264000
2.861000 0.094000 0.254000
2.853000 0.090000 0.244000
2.846000 0.086000 0.235000
2.841000 0.083000 0.226000
2.851000 0.080000 0.218000
2.863000 0.077000 0.211000
2.881000 0.074000 0.203000
2.879000 0.070000 0.194000
3.444000 -0.106000 -0.350000
3.448000 -0.109000 -0.362000
3.438000 -0.112000 -0.371000
3.517000 -0.121000 -0.402000
3.143000 -0.045000 0.113000
3.135000 -0.049000 0.122000
3.175000 -0.086000 0.051000
3.169000 -0.077000 0.045000
3.302000 -0.129000 -0.146000
3.301000 -0.122000 -0.138000
2.910000 0.158000 0.196000
2.910000 0.164000 0.203000
2.858000 0.172000 0.214000
2.864000 0.178000 0.222000
2.866000 0.184000 0.230000
2.878000 0.190000 0.238000
2.902000 0.197000 0.248000
2.911000 0.204000 0.256000
2.875000 0.218000 0.276000
2.908000 0.011000 0.273000
2.906000 0.010000 0.264000
2.914000 0.010000 0.255000
3.072000 0.007000 0.209000
3.077000 0.006000 0.199000
3.077000 0.006000 0.189000
3.160000 -0.066000 0.080000
3.197000 -0.096000 0.021000
3.193000 -0.086000 0.019000
3.262000 -0.126000 -0.070000
3.343000 -0.128000 -0.288000
3.327000 -0.118000 -0.267000
3.322000 -0.114000 -0.257000
3.332000 -0.109000 -0.247000
2.885000 0.074000 0.191000
2.880000 0.077000 0.199000
2.880000 0.080000 0.208000
2.867000 0.083000 0.216000
2.854000 0.086000 0.224000
2.846000 0.088000 0.232000
2.856000 0.092000 0.241000
2.861000 0.095000 0.250000
2.865000 0.098000 0.259000
2.920000 0.107000 0.282000
2.898000 0.112000 0.298000
2.926000 0.116000 0.310000
3.121000 -0.038000 0.134000
3.121000 -0.036000 0.125000
3.172000 -0.072000 0.045000
3.174000 -0.081000 0.051000
3.186000 -0.090000 0.057000
3.303000 -0.130000 -0.139000
3.306000 -0.137000 -0.147000
3.409000 -0.071000 -0.560000
3.431000 -0.069000 -0.553000
3.439000 -0.068000 -0.543000
3.332000 -0.060000 -0.494000
3.085000 0.011000 0.190000
3.074000 0.011000 0.199000
3.074000 0.012000 0.209000
2.913000 0.013000 0.255000
2.909000 0.013000 0.264000
2.921000 0.014000 0.275000
3.151000 -0.061000 0.090000
3.192000 -0.095000 0.024000
3.241000 -0.118000 -0.051000
2.863000 0.196000 0.360000
2.864000 0.191000 0.352000
2.863000 0.186000 0.344000
2.855000 0.181000 0.335000
2.851000 0.176000 0.327000
2.885000 0.164000 0.306000
2.867000 0.158000 0.296000
2.889000 0.154000 0.290000
2.892000 0.150000 0.282000
2.876000 0.145000 0.272000
2.891000 0.141000 0.266000
2.923000 0.133000 0.252000
2.917000 0.128000 0.243000
2.911000 0.123000 0.234000
2.906000 0.118000 0.226000
3.330000 -0.117000 -0.253000
3.329000 -0.121000 -0.263000
3.130000 -0.032000 0.128000
3.127000 -0.035000 0.138000
3.172000 -0.078000 0.060000
3.291000 -0.129000 -0.112000
3.284000 -0.121000 -0.105000
2.974000 0.053000 0.302000
2.948000 0.050000 0.290000
2.933000 0.048000 0.279000
2.929000 0.046000 0.269000
2.932000 0.045000 0.260000
2.925000 0.043000 0.250000
2.928000 0.041000 0.241000
3.038000 0.039000 0.231000
3.361000 -0.054000 -0.557000
3.347000 -0.054000 -0.566000
3.344000 -0.055000 -0.576000
3.328000 -0.055000 -0.584000
3.378000 -0.059000 -0.671000
3.404000 -0.060000 -0.688000
3.464000 -0.061000 -0.711000
3.556000 -0.063000 -0.742000
3.155000 -0.056000 0.090000
3.157000 -0.062000 0.098000
3.185000 -0.090000 0.033000
3.251000 -0.126000 -0.049000
3.316000 -0.127000 -0.210000
3.319000 -0.122000 -0.201000
3.310000 -0.116000 -0.191000
2.914000 0.122000 0.225000
2.903000 0.126000 0.232000
2.915000 0.130000 0.242000
2.924000 0.135000 0.251000
2.871000 0.145000 0.272000
2.891000 0.151000 0.282000
2.907000 0.156000 0.292000
2.896000 0.159000 0.299000
2.904000 0.164000 0.309000
2.891000 0.167000 0.316000
2.855000 0.173000 0.329000
2.858000 0.178000 0.337000
2.863000 0.182000 0.346000
2.862000 0.186000 0.355000
2.867000 0.190000 0.364000
2.879000 0.195000 0.374000
3.110000 -0.024000 0.166000
3.107000 -0.023000 0.155000
3.112000 -0.022000 0.146000
3.170000 -0.075000 0.062000
3.179000 -0.083000 0.069000
3.204000 -0.095000 0.003000
3.282000 -0.123000 -0.101000
3.288000 -0.132000 -0.108000
3.454000 -0.103000 -0.410000
3.343000 -0.093000 -0.376000
3.344000 -0.090000 -0.365000
3.040000 0.042000 0.225000
3.025000 0.044000 0.234000
2.923000 0.045000 0.244000
2.923000 0.047000 0.254000
2.927000 0.049000 0.263000
2.923000 0.050000 0.272000
2.926000 0.052000 0.282000
2.989000 0.056000 0.307000
2.990000 0.057000 0.317000
2.994000 0.059000 0.327000
3.139000 -0.056000 0.113000
3.145000 -0.052000 0.104000
3.183000 -0.093000 0.037000
2.868000 0.206000 0.285000
2.862000 0.199000 0.277000
2.888000 0.195000 0.272000
2.904000 0.191000 0.266000
2.892000 0.184000 0.257000
2.866000 0.177000 0.247000
2.861000 0.171000 0.240000
2.858000 0.165000 0.232000
2.856000 0.160000 0.224000
2.911000 0.151000 0.213000
2.913000 0.146000 0.206000
3.315000 -0.122000 -0.192000
3.320000 -0.128000 -0.201000
3.312000 -0.133000 -0.210000
3.109000 -0.018000 0.154000
3.110000 -0.019000 0.164000
3.160000 -0.073000 0.075000
3.160000 -0.066000 0.067000
3.200000 -0.103000 0.007000
3.266000 -0.121000 -0.080000
2.919000 0.102000 0.320000
2.925000 0.099000 0.311000
2.938000 0.097000 0.304000
2.956000 0.094000 0.296000
2.952000 0.091000 0.287000
2.862000 0.082000 0.261000
2.854000 0.079000 0.251000
2.858000 0.076000 0.243000
2.901000 0.071000 0.228000
2.894000 0.068000 0.219000
2.892000 0.065000 0.210000
2.887000 0.062000 0.200000
3.386000 -0.089000 -0.357000
3.339000 -0.090000 -0.363000
3.362000 -0.093000 -0.376000
3.365000 -0.096000 -0.387000
3.448000 -0.103000 -0.418000
3.559000 -0.109000 -0.443000
3.143000 -0.049000 0.108000
3.144000 -0.054000 0.118000
3.176000 -0.091000 0.047000
3.175000 -0.082000 0.043000
3.309000 -0.131000 -0.164000
3.307000 -0.124000 -0.155000
2.912000 0.152000 0.209000
2.905000 0.157000 0.216000
2.859000 0.165000 0.228000
2.865000 0.170000 0.236000
2.864000 0.176000 0.244000
2.874000 0.182000 0.252000
2.902000 0.194000 0.271000
2.867000 0.202000 0.283000
2.877000 0.208000 0.292000
3.087000 -0.002000 0.193000
3.085000 -0.002000 0.183000
3.089000 -0.002000 0.173000
3.163000 -0.068000 0.074000
3.167000 -0.075000 0.081000
3.194000 -0.090000 0.015000
3.271000 -0.129000 -0.080000
3.310000 -0.114000 -0.294000
3.329000 -0.110000 -0.285000
3.328000 -0.106000 -0.275000
2.894000 0.069000 0.210000
2.892000 0.072000 0.219000
2.904000 0.075000 0.229000
2.913000 0.078000 0.239000
2.857000 0.082000 0.252000
2.873000 0.085000 0.262000
2.895000 0.088000 0.273000
2.954000 0.093000 0.288000
2.939000 0.095000 0.296000
2.917000 0.097000 0.303000
2.906000 0.099000 0.311000
2.901000 0.102000 0.319000
2.907000 0.104000 0.329000
3.127000 -0.043000 0.125000
3.174000 -0.081000 0.046000
3.183000 -0.090000 0.051000
2.864000 0.179000 0.193000
2.860000 0.172000 0.186000
3.307000 -0.128000 -0.152000
3.304000 -0.134000 -0.160000
3.376000 -0.057000 -0.671000
3.343000 -0.055000 -0.653000
3.331000 -0.047000 -0.597000
3.343000 -0.046000 -0.588000
3.085000 0.001000 0.178000
3.094000 0.001000 0.188000
3.159000 -0.067000 0.089000
3.155000 -0.061000 0.081000
3.195000 -0.094000 0.019000
3.179000 -0.104000 0.021000
3.236000 -0.116000 -0.057000
2.861000 0.173000 0.362000
2.862000 0.168000 0.354000
2.861000 0.164000 0.345000
2.858000 0.159000 0.337000
2.857000 0.155000 0.328000
2.857000 0.151000 0.320000
2.878000 0.148000 0.314000
2.906000 0.145000 0.308000
2.914000 0.141000 0.301000
2.851000 0.129000 0.278000
2.875000 0.126000 0.272000
2.861000 0.122000 0.262000
2.861000 0.118000 0.254000
2.874000 0.114000 0.246000
2.850000 0.109000 0.236000
2.855000 0.105000 0.228000
2.840000 0.100000 0.219000
3.331000 -0.111000 -0.279000
3.334000 -0.115000 -0.289000
3.128000 -0.039000 0.126000
3.132000 -0.042000 0.136000
3.172000 -0.081000 0.057000
3.287000 -0.131000 -0.127000
3.285000 -0.124000 -0.119000
3.278000 -0.116000 -0.112000
2.921000 0.168000 0.177000
2.866000 0.177000 0.187000
2.867000 0.183000 0.194000
2.988000 0.040000 0.326000
2.985000 0.039000 0.316000
2.982000 0.037000 0.306000
2.911000 0.034000 0.280000
2.914000 0.032000 0.271000
2.914000 0.031000 0.261000
