# .PCD v0.7 - Point Cloud Data file format
VERSION 0.7
FIELDS x y z
SIZE 4 4 4
TYPE F F F
COUNT 1 1 1
WIDTH 1660
HEIGHT 1
VIEWPOINT 0 0 0 1 0 0 0
POINTS 1660
DATA ascii
3.114000 0.125000 0.086000
3.280000 -0.091000 -0.343000
3.275000 -0.093000 -0.353000
3.266000 -0.096000 -0.362000
3.273000 -0.098000 -0.373000
3.279000 -0.101000 -0.384000
3.244000 0.040000 -0.101000
3.247000 0.036000 -0.091000
3.207000 0.082000 -0.041000
3.184000 0.252000 0.047000
3.167000 0.240000 0.045000
3.166000 0.230000 0.043000
3.128000 0.207000 0.039000
3.104000 0.196000 0.037000
3.100000 0.186000 0.035000
3.091000 0.175000 0.033000
3.174000 0.160000 0.030000
3.177000 0.150000 0.029000
3.215000 0.111000 0.021000
3.221000 0.100000 0.019000
3.246000 0.004000 -0.132000
3.240000 0.005000 -0.142000
3.249000 0.005000 -0.153000
3.125000 0.072000 -0.086000
3.149000 0.066000 -0.079000
3.219000 0.061000 -0.073000
3.228000 0.054000 -0.065000
3.203000 0.104000 -0.015000
3.183000 0.113000 -0.017000
3.146000 0.122000 -0.018000
3.140000 0.132000 -0.020000
3.129000 0.181000 -0.027000
3.129000 0.191000 -0.028000
3.142000 0.202000 -0.030000
3.144000 0.213000 -0.031000
3.203000 0.237000 -0.034000
3.115000 0.146000 0.080000
3.113000 0.137000 0.075000
3.100000 0.128000 0.070000
3.243000 0.106000 0.058000
3.242000 0.097000 0.053000
3.230000 0.087000 0.048000
3.237000 0.035000 -0.098000
3.175000 0.093000 -0.059000
3.186000 0.085000 -0.053000
3.193000 0.076000 -0.048000
3.171000 0.067000 -0.042000
3.200000 0.057000 -0.065000
3.129000 0.069000 -0.079000
3.132000 0.075000 -0.087000
3.202000 0.238000 -0.049000
3.193000 0.227000 -0.046000
3.188000 0.216000 -0.044000
3.188000 0.206000 -0.042000
3.188000 0.196000 -0.039000
3.127000 0.123000 -0.024000
3.114000 0.112000 -0.022000
3.210000 0.095000 -0.019000
3.246000 0.089000 0.052000
3.242000 0.098000 0.057000
3.247000 0.107000 0.062000
3.116000 0.129000 0.075000
3.253000 0.036000 -0.117000
3.239000 0.033000 -0.106000
3.184000 0.066000 -0.040000
3.215000 0.076000 -0.045000
3.179000 0.258000 0.028000
3.167000 0.247000 0.027000
3.209000 0.229000 0.025000
3.089000 0.201000 0.022000
3.094000 0.191000 0.021000
3.097000 0.181000 0.020000
3.172000 0.165000 0.019000
3.175000 0.155000 0.018000
3.169000 0.144000 0.016000
3.190000 0.135000 0.015000
3.211000 0.105000 0.012000
3.254000 -0.005000 -0.151000
3.244000 -0.006000 -0.162000
3.249000 -0.006000 -0.172000
3.256000 -0.006000 -0.183000
3.283000 0.034000 -1.008000
3.327000 0.036000 -1.032000
3.410000 0.039000 -1.069000
3.251000 0.056000 -0.079000
3.238000 0.050000 -0.070000
3.191000 0.100000 -0.023000
3.136000 0.108000 -0.025000
3.117000 0.117000 -0.027000
3.136000 0.128000 -0.029000
3.192000 0.201000 -0.045000
3.188000 0.211000 -0.047000
3.190000 0.221000 -0.049000
3.195000 0.231000 -0.052000
3.203000 0.242000 -0.054000
3.130000 0.173000 0.079000
3.115000 0.163000 0.074000
3.118000 0.154000 0.070000
3.129000 0.146000 0.066000
3.233000 0.102000 0.047000
3.228000 0.093000 0.042000
3.246000 0.027000 -0.097000
3.239000 0.030000 -0.107000
3.164000 0.091000 -0.067000
3.169000 0.083000 -0.061000
3.163000 0.075000 -0.055000
3.158000 0.066000 -0.049000
3.216000 0.115000 0.009000
3.197000 0.135000 0.011000
3.183000 0.144000 0.012000
3.180000 0.155000 0.013000
3.177000 0.165000 0.014000
3.104000 0.181000 0.016000
3.098000 0.191000 0.017000
3.094000 0.200000 0.018000
3.209000 0.239000 0.022000
3.176000 0.257000 0.024000
3.254000 0.090000 0.083000
3.259000 -0.104000 -0.600000
3.243000 -0.101000 -0.587000
3.242000 -0.099000 -0.576000
3.244000 -0.096000 -0.566000
3.270000 -0.095000 -0.560000
3.260000 -0.035000 -0.244000
3.258000 -0.033000 -0.233000
3.258000 -0.031000 -0.223000
3.264000 -0.030000 -0.213000
3.260000 -0.028000 -0.202000
3.233000 0.051000 -0.077000
3.200000 0.062000 -0.094000
3.111000 0.103000 -0.035000
3.208000 0.087000 -0.029000
3.215000 0.108000 0.017000
3.225000 0.118000 0.019000
3.183000 0.147000 0.024000
3.176000 0.157000 0.025000
3.165000 0.167000 0.027000
3.102000 0.183000 0.030000
3.103000 0.193000 0.032000
3.107000 0.203000 0.033000
3.180000 0.229000 0.038000
3.162000 0.237000 0.040000
3.182000 0.249000 0.042000
3.382000 -0.083000 -0.757000
3.253000 -0.013000 -0.199000
3.250000 -0.012000 -0.188000
3.252000 -0.011000 -0.178000
3.256000 -0.010000 -0.167000
3.223000 0.053000 -0.068000
3.197000 0.059000 -0.075000
3.133000 0.064000 -0.082000
3.126000 0.070000 -0.090000
3.200000 0.235000 -0.062000
3.196000 0.225000 -0.059000
3.192000 0.214000 -0.056000
3.191000 0.204000 -0.053000
3.116000 0.121000 -0.031000
3.109000 0.111000 -0.028000
3.205000 0.095000 -0.024000
3.236000 0.091000 0.046000
3.242000 0.101000 0.051000
3.243000 0.110000 0.056000
3.118000 0.133000 0.068000
3.121000 0.142000 0.073000
3.240000 0.030000 -0.118000
3.240000 0.027000 -0.108000
3.179000 0.064000 -0.043000
3.197000 0.073000 -0.049000
3.190000 0.081000 -0.055000
3.179000 0.090000 -0.061000
3.215000 0.230000 0.012000
3.085000 0.201000 0.011000
3.095000 0.191000 0.011000
3.159000 0.175000 0.010000
3.181000 0.145000 0.008000
3.184000 0.135000 0.008000
3.192000 0.125000 0.007000
3.218000 0.105000 0.006000
3.249000 -0.015000 -0.171000
3.248000 -0.016000 -0.182000
3.257000 -0.017000 -0.193000
3.363000 -0.027000 -0.942000
3.373000 -0.027000 -0.956000
3.233000 0.046000 -0.073000
3.211000 0.089000 -0.025000
3.193000 0.098000 -0.028000
3.114000 0.115000 -0.033000
3.118000 0.125000 -0.036000
3.187000 0.207000 -0.059000
3.191000 0.218000 -0.062000
3.196000 0.228000 -0.064000
3.202000 0.238000 -0.067000
3.129000 0.177000 0.069000
3.121000 0.167000 0.065000
3.122000 0.158000 0.061000
3.146000 0.150000 0.058000
3.230000 0.105000 0.041000
3.231000 0.095000 0.037000
3.242000 0.024000 -0.109000
3.243000 0.026000 -0.119000
3.132000 0.094000 -0.078000
3.150000 0.086000 -0.072000
3.156000 0.079000 -0.065000
3.146000 0.070000 -0.058000
3.197000 0.126000 0.003000
3.190000 0.136000 0.004000
3.182000 0.146000 0.004000
3.158000 0.176000 0.005000
3.142000 0.185000 0.006000
3.101000 0.192000 0.006000
3.085000 0.201000 0.007000
3.221000 0.242000 0.009000
3.181000 0.259000 0.010000
3.114000 0.113000 0.092000
3.251000 0.093000 0.077000
3.254000 0.085000 0.070000
3.282000 -0.106000 -0.482000
3.279000 -0.103000 -0.471000
3.277000 -0.101000 -0.460000
3.275000 -0.098000 -0.450000
3.280000 -0.095000 -0.440000
3.277000 -0.093000 -0.429000
3.279000 -0.090000 -0.419000
3.273000 -0.087000 -0.408000
3.276000 -0.085000 -0.398000
3.276000 -0.082000 -0.388000
3.273000 -0.080000 -0.377000
3.270000 -0.077000 -0.366000
3.279000 -0.075000 -0.357000
3.273000 -0.072000 -0.346000
3.274000 -0.070000 -0.335000
3.275000 -0.067000 -0.325000
3.272000 -0.065000 -0.314000
3.273000 -0.062000 -0.304000
3.266000 -0.060000 -0.293000
3.272000 -0.057000 -0.283000
3.266000 -0.055000 -0.272000
3.269000 -0.053000 -0.262000
3.268000 -0.050000 -0.252000
3.238000 0.047000 -0.080000
3.213000 0.085000 -0.034000
3.237000 0.093000 0.033000
3.237000 0.103000 0.037000
3.230000 0.113000 0.040000
3.141000 0.157000 0.056000
3.124000 0.166000 0.060000
3.130000 0.176000 0.063000
3.294000 0.047000 -1.027000
3.219000 0.046000 -0.993000
3.322000 0.048000 -1.013000
3.387000 0.050000 -1.022000
3.240000 0.016000 -0.135000
3.243000 0.015000 -0.124000
3.164000 0.063000 -0.056000
3.157000 0.071000 -0.063000
3.166000 0.078000 -0.070000
3.157000 0.086000 -0.076000
3.216000 0.233000 -0.017000
3.176000 0.220000 -0.016000
3.131000 0.207000 -0.015000
3.132000 0.196000 -0.014000
3.133000 0.186000 -0.013000
3.138000 0.177000 -0.012000
3.169000 0.127000 -0.008000
3.190000 0.118000 -0.008000
3.202000 0.108000 -0.007000
3.257000 0.090000 0.069000
3.261000 0.098000 0.076000
3.110000 0.118000 0.091000
3.268000 -0.054000 -0.249000
3.270000 -0.057000 -0.259000
3.270000 -0.059000 -0.270000
3.267000 -0.061000 -0.280000
3.270000 -0.063000 -0.291000
3.268000 -0.065000 -0.301000
3.267000 -0.067000 -0.311000
3.280000 -0.093000 -0.460000
3.279000 -0.095000 -0.471000
3.281000 -0.097000 -0.482000
3.272000 -0.098000 -0.491000
3.276000 -0.100000 -0.502000
3.272000 -0.101000 -0.512000
3.272000 -0.103000 -0.523000
3.272000 -0.104000 -0.534000
3.276000 -0.106000 -0.545000
3.272000 -0.108000 -0.555000
3.269000 -0.109000 -0.565000
3.276000 -0.111000 -0.577000
3.273000 -0.112000 -0.587000
3.240000 0.042000 -0.092000
3.216000 0.082000 -0.036000
3.213000 0.091000 -0.040000
3.192000 0.242000 0.058000
3.149000 0.219000 0.053000
3.134000 0.208000 0.050000
3.125000 0.197000 0.048000
3.121000 0.187000 0.046000
3.107000 0.177000 0.043000
3.142000 0.169000 0.041000
3.175000 0.160000 0.039000
3.170000 0.150000 0.037000
3.217000 0.112000 0.028000
3.218000 0.102000 0.025000
3.239000 0.011000 -0.130000
3.245000 0.012000 -0.140000
3.127000 0.077000 -0.083000
3.115000 0.070000 -0.076000
3.218000 0.058000 -0.063000
3.199000 0.113000 -0.011000
3.178000 0.122000 -0.012000
3.160000 0.132000 -0.013000
3.133000 0.191000 -0.018000
3.125000 0.201000 -0.019000
3.144000 0.212000 -0.020000
3.209000 0.227000 -0.021000
3.228000 0.239000 -0.022000
3.116000 0.135000 0.084000
3.103000 0.126000 0.078000
3.247000 0.105000 0.065000
3.244000 0.095000 0.059000
3.240000 0.086000 0.054000
3.243000 0.040000 -0.094000
3.211000 0.080000 -0.045000
3.184000 0.071000 -0.040000
3.219000 0.105000 0.022000
3.223000 0.115000 0.025000
3.175000 0.154000 0.033000
3.176000 0.164000 0.035000
3.115000 0.181000 0.039000
3.121000 0.191000 0.042000
3.128000 0.201000 0.044000
3.142000 0.212000 0.047000
3.158000 0.223000 0.049000
3.172000 0.234000 0.052000
3.352000 -0.056000 -0.855000
3.246000 -0.001000 -0.169000
3.248000 -0.001000 -0.159000
3.222000 0.055000 -0.063000
3.123000 0.067000 -0.077000
3.130000 0.073000 -0.085000
3.207000 0.240000 -0.050000
3.198000 0.229000 -0.047000
3.185000 0.218000 -0.045000
3.188000 0.208000 -0.043000
3.191000 0.198000 -0.040000
3.124000 0.125000 -0.025000
3.117000 0.115000 -0.023000
3.144000 0.106000 -0.021000
3.200000 0.097000 -0.019000
3.244000 0.096000 0.056000
3.244000 0.105000 0.061000
3.116000 0.127000 0.074000
3.117000 0.136000 0.079000
3.254000 0.037000 -0.118000
3.242000 0.034000 -0.108000
3.247000 0.030000 -0.098000
3.181000 0.065000 -0.039000
3.201000 0.074000 -0.045000
3.215000 0.084000 -0.050000
3.178000 0.259000 0.027000
3.167000 0.248000 0.026000
3.208000 0.230000 0.025000
3.092000 0.202000 0.022000
3.087000 0.192000 0.021000
3.105000 0.183000 0.020000
3.129000 0.174000 0.019000
3.173000 0.166000 0.018000
3.176000 0.156000 0.017000
3.178000 0.146000 0.016000
3.186000 0.136000 0.015000
3.208000 0.106000 0.012000
3.248000 -0.006000 -0.160000
3.244000 -0.006000 -0.171000
3.248000 -0.007000 -0.181000
3.321000 0.032000 -1.017000
3.327000 0.033000 -1.031000
3.237000 0.063000 -0.089000
3.232000 0.051000 -0.072000
3.193000 0.098000 -0.023000
3.117000 0.115000 -0.027000
3.137000 0.126000 -0.029000
3.188000 0.209000 -0.048000
3.190000 0.219000 -0.050000
3.196000 0.230000 -0.052000
3.205000 0.240000 -0.054000
3.121000 0.165000 0.074000
3.120000 0.156000 0.070000
3.140000 0.148000 0.067000
3.238000 0.104000 0.047000
3.238000 0.095000 0.043000
3.241000 0.029000 -0.106000
3.253000 0.032000 -0.117000
3.164000 0.092000 -0.068000
3.169000 0.084000 -0.062000
3.163000 0.075000 -0.056000
3.165000 0.067000 -0.050000
3.218000 0.114000 0.009000
3.190000 0.134000 0.011000
3.183000 0.144000 0.012000
3.179000 0.154000 0.013000
3.178000 0.164000 0.013000
3.108000 0.180000 0.015000
3.091000 0.189000 0.016000
3.094000 0.200000 0.017000
3.209000 0.228000 0.020000
3.215000 0.239000 0.021000
3.178000 0.256000 0.023000
3.252000 0.091000 0.083000
3.256000 -0.106000 -0.600000
3.259000 -0.104000 -0.590000
3.255000 -0.101000 -0.579000
3.245000 -0.099000 -0.567000
3.269000 -0.097000 -0.560000
3.269000 -0.095000 -0.550000
3.256000 -0.036000 -0.245000
3.261000 -0.034000 -0.234000
3.259000 -0.032000 -0.224000
3.265000 -0.031000 -0.214000
3.264000 -0.029000 -0.203000
3.235000 0.050000 -0.077000
3.199000 0.061000 -0.093000
3.116000 0.104000 -0.035000
3.205000 0.087000 -0.029000
3.238000 0.099000 0.041000
3.241000 0.109000 0.045000
3.141000 0.143000 0.060000
3.131000 0.152000 0.064000
3.122000 0.161000 0.067000
3.122000 0.170000 0.071000
3.236000 0.021000 -0.125000
3.242000 0.020000 -0.115000
3.167000 0.065000 -0.052000
3.172000 0.073000 -0.058000
3.172000 0.081000 -0.065000
3.164000 0.089000 -0.071000
3.225000 0.235000 -0.005000
3.204000 0.223000 -0.004000
3.104000 0.207000 -0.004000
3.100000 0.196000 -0.004000
3.143000 0.178000 -0.003000
3.192000 0.161000 -0.002000
3.193000 0.150000 -0.002000
3.194000 0.140000 -0.002000
3.187000 0.129000 -0.002000
3.190000 0.119000 -0.001000
3.209000 0.109000 -0.001000
3.259000 0.093000 0.080000
3.266000 -0.035000 -0.208000
3.262000 -0.036000 -0.218000
3.261000 -0.038000 -0.228000
3.256000 -0.039000 -0.239000
3.399000 -0.093000 -0.726000
3.388000 -0.093000 -0.735000
3.400000 -0.094000 -0.748000
3.251000 0.048000 -0.091000
3.238000 0.043000 -0.081000
3.207000 0.091000 -0.034000
3.114000 0.107000 -0.040000
3.153000 0.219000 0.065000
3.150000 0.209000 0.062000
3.152000 0.199000 0.060000
3.152000 0.189000 0.057000
3.135000 0.178000 0.054000
3.139000 0.169000 0.051000
3.160000 0.160000 0.048000
3.167000 0.151000 0.046000
3.225000 0.113000 0.034000
3.216000 0.103000 0.031000
3.228000 0.093000 0.028000
3.239000 0.016000 -0.115000
3.238000 0.017000 -0.125000
3.138000 0.084000 -0.082000
3.134000 0.077000 -0.075000
3.130000 0.070000 -0.068000
3.209000 0.110000 -0.005000
3.191000 0.119000 -0.005000
3.192000 0.130000 -0.006000
3.186000 0.140000 -0.006000
3.194000 0.151000 -0.006000
3.198000 0.161000 -0.007000
3.197000 0.171000 -0.007000
3.129000 0.188000 -0.008000
3.100000 0.196000 -0.008000
3.104000 0.207000 -0.008000
3.229000 0.236000 -0.009000
3.106000 0.125000 0.087000
3.108000 0.116000 0.081000
3.247000 0.096000 0.067000
3.245000 0.087000 0.061000
3.239000 0.042000 -0.087000
3.209000 0.088000 -0.043000
3.211000 0.078000 -0.038000
3.229000 0.098000 0.026000
3.222000 0.108000 0.029000
3.234000 0.119000 0.032000
3.170000 0.156000 0.043000
3.155000 0.165000 0.045000
3.138000 0.174000 0.048000
3.147000 0.184000 0.051000
3.155000 0.195000 0.054000
3.153000 0.205000 0.057000
3.154000 0.214000 0.059000
3.177000 0.226000 0.063000
3.404000 -0.019000 -0.957000
3.244000 0.007000 -0.164000
3.245000 0.006000 -0.154000
3.254000 0.006000 -0.144000
3.166000 0.061000 -0.063000
3.134000 0.067000 -0.069000
3.145000 0.074000 -0.077000
3.138000 0.081000 -0.084000
3.196000 0.237000 -0.036000
3.188000 0.226000 -0.034000
3.163000 0.214000 -0.032000
3.161000 0.204000 -0.030000
3.139000 0.193000 -0.028000
3.123000 0.182000 -0.027000
3.137000 0.132000 -0.019000
3.130000 0.122000 -0.017000
3.150000 0.112000 -0.016000
3.184000 0.103000 -0.015000
3.243000 0.088000 0.057000
3.246000 0.097000 0.063000
3.256000 0.106000 0.069000
3.109000 0.126000 0.083000
3.241000 0.038000 -0.103000
3.198000 0.070000 -0.037000
3.215000 0.080000 -0.042000
3.182000 0.255000 0.041000
3.166000 0.243000 0.039000
3.168000 0.233000 0.038000
3.144000 0.211000 0.035000
3.100000 0.198000 0.033000
3.102000 0.188000 0.031000
3.098000 0.178000 0.029000
3.106000 0.169000 0.028000
3.175000 0.152000 0.025000
3.183000 0.142000 0.024000
3.216000 0.113000 0.019000
3.218000 0.103000 0.017000
3.245000 0.002000 -0.141000
3.245000 0.002000 -0.151000
3.246000 0.002000 -0.162000
3.172000 0.066000 -0.083000
3.224000 0.054000 -0.068000
3.200000 0.101000 -0.017000
3.177000 0.110000 -0.019000
3.144000 0.119000 -0.021000
3.140000 0.129000 -0.022000
3.132000 0.189000 -0.032000
3.154000 0.210000 -0.036000
3.179000 0.222000 -0.037000
3.196000 0.234000 -0.039000
3.120000 0.159000 0.083000
3.119000 0.150000 0.078000
3.122000 0.142000 0.074000
3.103000 0.132000 0.069000
3.239000 0.100000 0.052000
3.232000 0.091000 0.047000
3.249000 0.032000 -0.096000
3.243000 0.035000 -0.105000
3.162000 0.095000 -0.063000
3.177000 0.087000 -0.057000
3.184000 0.078000 -0.052000
3.170000 0.069000 -0.046000
3.221000 0.103000 0.014000
3.221000 0.114000 0.015000
3.189000 0.143000 0.020000
3.177000 0.153000 0.021000
3.177000 0.163000 0.023000
3.095000 0.179000 0.025000
3.107000 0.190000 0.027000
3.101000 0.199000 0.028000
3.202000 0.226000 0.033000
3.168000 0.234000 0.034000
3.167000 0.244000 0.036000
3.183000 0.255000 0.038000
3.378000 -0.091000 -0.716000
3.258000 -0.018000 -0.215000
3.255000 -0.017000 -0.204000
3.254000 -0.016000 -0.194000
3.256000 -0.015000 -0.183000
3.224000 0.055000 -0.073000
3.119000 0.065000 -0.087000
3.190000 0.073000 -0.097000
3.195000 0.228000 -0.065000
3.195000 0.218000 -0.062000
3.197000 0.208000 -0.059000
3.123000 0.116000 -0.032000
3.111000 0.105000 -0.029000
3.216000 0.089000 -0.024000
3.242000 0.097000 0.047000
3.241000 0.106000 0.051000
3.248000 0.116000 0.056000
3.113000 0.138000 0.067000
3.121000 0.148000 0.072000
3.124000 0.157000 0.077000
3.246000 0.029000 -0.125000
3.238000 0.026000 -0.114000
3.179000 0.067000 -0.047000
3.194000 0.076000 -0.054000
3.173000 0.084000 -0.059000
3.170000 0.092000 -0.065000
3.201000 0.225000 0.008000
3.080000 0.196000 0.007000
3.117000 0.189000 0.007000
3.145000 0.180000 0.006000
3.197000 0.162000 0.006000
3.197000 0.152000 0.006000
3.186000 0.141000 0.005000
3.192000 0.131000 0.005000
3.197000 0.121000 0.005000
3.210000 0.111000 0.004000
3.252000 -0.019000 -0.175000
3.253000 -0.020000 -0.186000
3.252000 -0.021000 -0.196000
3.254000 -0.022000 -0.207000
3.251000 -0.023000 -0.217000
3.373000 -0.049000 -0.891000
3.360000 -0.048000 -0.899000
3.209000 0.092000 -0.028000
3.113000 0.108000 -0.034000
3.121000 0.118000 -0.037000
3.192000 0.210000 -0.064000
3.194000 0.220000 -0.067000
3.201000 0.231000 -0.070000
3.122000 0.165000 0.060000
3.144000 0.157000 0.057000
3.165000 0.148000 0.054000
3.230000 0.112000 0.041000
3.227000 0.102000 0.038000
3.226000 0.092000 0.034000
3.243000 0.022000 -0.113000
3.241000 0.024000 -0.123000
3.139000 0.090000 -0.078000
3.154000 0.083000 -0.071000
3.150000 0.075000 -0.065000
3.153000 0.067000 -0.058000
3.214000 0.109000 0.001000
3.193000 0.129000 0.001000
3.183000 0.139000 0.001000
3.191000 0.149000 0.001000
3.203000 0.160000 0.002000
3.129000 0.187000 0.002000
3.088000 0.195000 0.002000
3.082000 0.204000 0.003000
3.216000 0.234000 0.003000
3.115000 0.112000 0.088000
3.249000 0.092000 0.073000
3.251000 0.084000 0.066000
3.277000 -0.100000 -0.424000
3.281000 -0.097000 -0.414000
3.278000 -0.094000 -0.404000
3.279000 -0.092000 -0.393000
3.279000 -0.089000 -0.383000
3.275000 -0.086000 -0.372000
3.270000 -0.083000 -0.361000
3.273000 -0.080000 -0.351000
3.274000 -0.078000 -0.341000
3.279000 -0.075000 -0.331000
3.276000 -0.073000 -0.321000
3.272000 -0.070000 -0.310000
3.273000 -0.067000 -0.300000
3.271000 -0.065000 -0.289000
3.271000 -0.062000 -0.279000
3.269000 -0.060000 -0.268000
3.281000 -0.057000 -0.259000
3.248000 0.047000 -0.085000
3.209000 0.090000 -0.038000
3.214000 0.081000 -0.034000
3.232000 0.097000 0.032000
3.233000 0.107000 0.036000
3.234000 0.117000 0.039000
3.159000 0.153000 0.051000
3.138000 0.161000 0.054000
3.124000 0.170000 0.058000
3.138000 0.180000 0.061000
3.405000 0.030000 -1.060000
3.361000 0.031000 -1.035000
3.305000 0.031000 -1.007000
3.397000 0.032000 -1.023000
3.240000 0.014000 -0.143000
3.241000 0.013000 -0.133000
3.159000 0.064000 -0.058000
3.157000 0.071000 -0.065000
3.161000 0.079000 -0.072000
3.141000 0.086000 -0.079000
3.198000 0.230000 -0.021000
3.134000 0.205000 -0.018000
3.132000 0.195000 -0.017000
3.124000 0.184000 -0.016000
3.143000 0.134000 -0.011000
3.155000 0.124000 -0.010000
3.181000 0.115000 -0.009000
3.203000 0.106000 -0.009000
3.248000 0.092000 0.068000
3.256000 0.101000 0.075000
3.117000 0.120000 0.090000
3.267000 -0.061000 -0.259000
3.270000 -0.063000 -0.269000
3.276000 -0.065000 -0.280000
3.270000 -0.067000 -0.290000
3.270000 -0.070000 -0.301000
3.275000 -0.072000 -0.312000
3.276000 -0.074000 -0.322000
3.277000 -0.076000 -0.333000
3.276000 -0.078000 -0.343000
3.275000 -0.080000 -0.354000
3.275000 -0.082000 -0.364000
3.277000 -0.084000 -0.375000
3.275000 -0.086000 -0.385000
3.269000 -0.088000 -0.395000
3.279000 -0.091000 -0.407000
3.278000 -0.093000 -0.417000
3.277000 -0.094000 -0.427000
3.279000 -0.096000 -0.438000
3.278000 -0.098000 -0.449000
3.277000 -0.100000 -0.459000
3.278000 -0.102000 -0.470000
3.277000 -0.104000 -0.480000
3.280000 -0.106000 -0.491000
3.277000 -0.108000 -0.501000
3.277000 -0.109000 -0.512000
3.255000 0.045000 -0.102000
3.240000 0.041000 -0.092000
3.210000 0.081000 -0.037000
3.212000 0.091000 -0.041000
3.183000 0.242000 0.054000
3.162000 0.230000 0.052000
3.159000 0.220000 0.049000
3.135000 0.208000 0.047000
3.113000 0.197000 0.045000
3.113000 0.187000 0.042000
3.107000 0.177000 0.040000
3.131000 0.168000 0.038000
3.177000 0.161000 0.037000
3.167000 0.150000 0.034000
3.216000 0.112000 0.026000
3.220000 0.102000 0.023000
3.249000 0.009000 -0.130000
3.240000 0.010000 -0.140000
3.237000 0.011000 -0.150000
3.127000 0.076000 -0.085000
3.118000 0.069000 -0.077000
3.216000 0.058000 -0.064000
3.198000 0.112000 -0.012000
3.174000 0.121000 -0.014000
3.150000 0.130000 -0.015000
3.131000 0.180000 -0.020000
3.131000 0.190000 -0.021000
3.129000 0.200000 -0.022000
3.136000 0.211000 -0.023000
3.215000 0.237000 -0.025000
3.114000 0.136000 0.082000
3.107000 0.127000 0.076000
3.248000 0.106000 0.064000
3.245000 0.097000 0.058000
3.238000 0.088000 0.053000
3.238000 0.038000 -0.094000
3.208000 0.081000 -0.047000
3.182000 0.071000 -0.041000
3.182000 0.062000 -0.036000
3.220000 0.104000 0.020000
3.223000 0.114000 0.023000
3.174000 0.153000 0.031000
3.176000 0.163000 0.033000
3.110000 0.179000 0.036000
3.113000 0.189000 0.039000
3.116000 0.199000 0.041000
3.162000 0.222000 0.046000
3.168000 0.233000 0.048000
3.188000 0.244000 0.051000
3.357000 -0.065000 -0.836000
3.236000 -0.061000 -0.795000
3.250000 -0.004000 -0.182000
3.241000 -0.004000 -0.171000
3.250000 -0.003000 -0.161000
3.184000 0.059000 -0.070000
3.123000 0.064000 -0.076000
3.128000 0.071000 -0.084000
3.211000 0.242000 -0.053000
3.200000 0.231000 -0.051000
3.191000 0.220000 -0.048000
3.182000 0.210000 -0.046000
3.193000 0.200000 -0.044000
3.129000 0.127000 -0.027000
3.114000 0.116000 -0.025000
3.121000 0.107000 -0.022000
3.215000 0.089000 -0.019000
3.244000 0.095000 0.053000
3.246000 0.104000 0.059000
3.107000 0.126000 0.071000
3.106000 0.135000 0.076000
3.243000 0.033000 -0.111000
3.243000 0.030000 -0.101000
3.198000 0.072000 -0.044000
3.211000 0.081000 -0.050000
3.167000 0.251000 0.023000
3.200000 0.222000 0.021000
3.092000 0.195000 0.019000
3.105000 0.185000 0.018000
3.132000 0.177000 0.017000
3.166000 0.169000 0.016000
3.176000 0.159000 0.015000
3.182000 0.149000 0.015000
3.185000 0.139000 0.014000
3.194000 0.129000 0.013000
3.210000 0.109000 0.011000
3.250000 -0.008000 -0.157000
3.245000 -0.008000 -0.167000
3.255000 -0.009000 -0.178000
3.265000 -0.009000 -0.189000
3.358000 0.017000 -1.014000
3.234000 0.052000 -0.075000
3.206000 0.095000 -0.023000
3.113000 0.112000 -0.027000
3.127000 0.122000 -0.030000
3.127000 0.132000 -0.032000
3.188000 0.205000 -0.049000
3.187000 0.215000 -0.052000
3.195000 0.226000 -0.054000
3.207000 0.237000 -0.056000
3.214000 0.247000 -0.059000
3.125000 0.169000 0.074000
3.115000 0.159000 0.069000
3.128000 0.151000 0.066000
3.237000 0.108000 0.047000
3.235000 0.098000 0.043000
3.232000 0.088000 0.039000
3.243000 0.027000 -0.103000
3.242000 0.030000 -0.113000
3.152000 0.093000 -0.071000
3.169000 0.086000 -0.065000
3.164000 0.077000 -0.059000
3.162000 0.069000 -0.053000
3.176000 0.061000 -0.047000
3.214000 0.111000 0.007000
3.198000 0.131000 0.009000
3.184000 0.141000 0.010000
3.183000 0.151000 0.011000
3.175000 0.161000 0.011000
3.166000 0.171000 0.012000
3.095000 0.187000 0.014000
3.091000 0.197000 0.014000
3.112000 0.208000 0.015000
3.212000 0.225000 0.017000
3.216000 0.236000 0.018000
3.167000 0.253000 0.020000
3.176000 0.263000 0.021000
3.256000 0.086000 0.077000
3.273000 -0.109000 -0.584000
3.272000 -0.104000 -0.562000
3.270000 -0.101000 -0.552000
3.272000 -0.099000 -0.541000
3.270000 -0.097000 -0.531000
3.271000 -0.094000 -0.520000
3.270000 -0.092000 -0.509000
3.263000 -0.041000 -0.258000
3.260000 -0.039000 -0.247000
3.258000 -0.037000 -0.236000
3.261000 -0.035000 -0.226000
3.263000 -0.034000 -0.216000
3.267000 -0.032000 -0.206000
3.236000 0.048000 -0.075000
3.222000 0.059000 -0.092000
3.210000 0.090000 -0.031000
3.221000 0.080000 -0.028000
3.234000 0.097000 0.039000
3.238000 0.107000 0.043000
3.241000 0.117000 0.047000
3.140000 0.151000 0.061000
3.120000 0.159000 0.065000
3.118000 0.169000 0.069000
3.236000 0.021000 -0.128000
3.243000 0.019000 -0.118000
3.164000 0.062000 -0.050000
3.165000 0.070000 -0.057000
3.170000 0.078000 -0.063000
3.166000 0.086000 -0.070000
3.144000 0.093000 -0.076000
3.222000 0.228000 -0.007000
3.096000 0.199000 -0.006000
3.127000 0.191000 -0.005000
3.135000 0.181000 -0.005000
3.193000 0.164000 -0.004000
3.194000 0.154000 -0.004000
3.194000 0.143000 -0.003000
3.192000 0.133000 -0.003000
3.185000 0.122000 -0.003000
3.204000 0.113000 -0.002000
3.213000 0.103000 -0.002000
3.258000 0.091000 0.077000
3.260000 -0.038000 -0.214000
3.268000 -0.040000 -0.225000
3.260000 -0.041000 -0.235000
3.259000 -0.043000 -0.246000
3.261000 -0.045000 -0.256000
3.417000 -0.098000 -0.691000
3.397000 -0.098000 -0.698000
3.403000 -0.099000 -0.711000
3.479000 -0.103000 -0.750000
3.239000 0.043000 -0.084000
3.208000 0.089000 -0.034000
3.113000 0.105000 -0.040000
3.158000 0.221000 0.063000
3.151000 0.210000 0.060000
3.144000 0.200000 0.058000
3.148000 0.191000 0.055000
3.132000 0.180000 0.052000
3.141000 0.171000 0.049000
3.168000 0.162000 0.047000
3.166000 0.152000 0.044000
3.226000 0.115000 0.034000
3.218000 0.104000 0.031000
3.223000 0.095000 0.028000
3.245000 0.015000 -0.115000
3.235000 0.016000 -0.125000
3.234000 0.017000 -0.136000
3.134000 0.083000 -0.083000
3.137000 0.076000 -0.076000
3.130000 0.069000 -0.068000
3.206000 0.110000 -0.006000
3.192000 0.119000 -0.006000
3.189000 0.130000 -0.007000
3.191000 0.140000 -0.008000
3.194000 0.151000 -0.008000
3.198000 0.161000 -0.009000
3.201000 0.172000 -0.009000
3.131000 0.188000 -0.010000
3.108000 0.197000 -0.010000
3.107000 0.207000 -0.011000
3.229000 0.236000 -0.012000
3.101000 0.125000 0.085000
3.109000 0.117000 0.080000
3.244000 0.096000 0.066000
3.240000 0.087000 0.060000
3.239000 0.042000 -0.088000
3.210000 0.087000 -0.044000
3.207000 0.077000 -0.039000
3.224000 0.099000 0.025000
3.225000 0.110000 0.028000
3.231000 0.120000 0.031000
3.168000 0.157000 0.041000
3.164000 0.167000 0.044000
3.136000 0.175000 0.046000
3.143000 0.185000 0.049000
3.145000 0.195000 0.052000
3.148000 0.206000 0.054000
3.150000 0.215000 0.057000
3.173000 0.227000 0.060000
3.350000 -0.028000 -0.929000
3.247000 0.005000 -0.164000
3.246000 0.004000 -0.153000
3.244000 0.004000 -0.143000
3.176000 0.060000 -0.064000
3.134000 0.066000 -0.070000
3.141000 0.074000 -0.078000
3.141000 0.081000 -0.085000
3.204000 0.237000 -0.039000
3.191000 0.226000 -0.037000
3.169000 0.214000 -0.034000
3.174000 0.204000 -0.033000
3.147000 0.192000 -0.031000
3.119000 0.181000 -0.029000
3.138000 0.132000 -0.020000
3.132000 0.121000 -0.019000
3.142000 0.112000 -0.017000
3.245000 0.089000 0.057000
3.246000 0.098000 0.062000
3.252000 0.107000 0.068000
3.113000 0.119000 0.076000
3.116000 0.128000 0.082000
3.255000 0.040000 -0.112000
3.239000 0.036000 -0.101000
3.204000 0.072000 -0.039000
3.208000 0.081000 -0.044000
3.177000 0.252000 0.037000
3.160000 0.240000 0.036000
3.204000 0.233000 0.035000
3.196000 0.222000 0.033000
3.100000 0.196000 0.030000
3.098000 0.186000 0.028000
3.093000 0.175000 0.027000
3.172000 0.160000 0.024000
3.177000 0.150000 0.023000
3.191000 0.140000 0.022000
3.218000 0.110000 0.017000
3.249000 0.000000 -0.145000
3.245000 0.000000 -0.155000
3.248000 0.000000 -0.166000
3.159000 0.068000 -0.088000
3.220000 0.063000 -0.082000
3.240000 0.057000 -0.074000
3.229000 0.050000 -0.065000
3.186000 0.104000 -0.019000
3.146000 0.113000 -0.021000
3.133000 0.122000 -0.023000
3.140000 0.132000 -0.025000
3.130000 0.182000 -0.034000
3.157000 0.194000 -0.036000
3.178000 0.205000 -0.038000
3.170000 0.215000 -0.039000
3.190000 0.226000 -0.041000
3.198000 0.237000 -0.043000
3.127000 0.167000 0.083000
3.122000 0.157000 0.079000
3.125000 0.148000 0.074000
3.122000 0.139000 0.070000
3.240000 0.107000 0.054000
3.239000 0.097000 0.049000
3.232000 0.088000 0.044000
3.239000 0.032000 -0.100000
3.255000 0.035000 -0.111000
3.221000 0.242000 0.008000
3.218000 0.231000 0.008000
3.083000 0.201000 0.007000
3.083000 0.191000 0.007000
3.165000 0.176000 0.006000
3.193000 0.156000 0.006000
3.187000 0.146000 0.005000
3.180000 0.135000 0.005000
3.192000 0.125000 0.005000
3.212000 0.105000 0.004000
3.256000 -0.020000 -0.180000
3.245000 -0.021000 -0.190000
3.255000 -0.022000 -0.201000
3.254000 -0.023000 -0.212000
3.392000 -0.048000 -0.890000
3.362000 -0.048000 -0.894000
3.373000 -0.048000 -0.908000
3.234000 0.046000 -0.076000
3.217000 0.087000 -0.027000
3.198000 0.096000 -0.030000
3.114000 0.113000 -0.035000
3.194000 0.205000 -0.063000
3.188000 0.215000 -0.065000
3.192000 0.225000 -0.068000
3.130000 0.171000 0.062000
3.129000 0.161000 0.059000
3.154000 0.153000 0.056000
3.230000 0.107000 0.039000
3.228000 0.097000 0.036000
3.241000 0.021000 -0.108000
3.237000 0.023000 -0.118000
3.245000 0.026000 -0.129000
3.144000 0.086000 -0.075000
3.153000 0.079000 -0.068000
3.141000 0.071000 -0.061000
3.163000 0.063000 -0.055000
3.193000 0.123000 0.001000
3.186000 0.134000 0.001000
3.186000 0.144000 0.001000
3.196000 0.155000 0.001000
3.170000 0.174000 0.002000
3.142000 0.183000 0.002000
3.101000 0.190000 0.002000
3.085000 0.199000 0.002000
3.220000 0.240000 0.004000
3.097000 0.116000 0.091000
3.252000 0.097000 0.076000
3.244000 0.088000 0.070000
3.277000 -0.099000 -0.420000
3.279000 -0.096000 -0.410000
3.280000 -0.094000 -0.399000
3.279000 -0.091000 -0.389000
3.275000 -0.088000 -0.378000
3.277000 -0.085000 -0.368000
3.275000 -0.083000 -0.357000
3.273000 -0.080000 -0.347000
3.275000 -0.077000 -0.337000
3.278000 -0.075000 -0.327000
3.271000 -0.072000 -0.316000
3.273000 -0.069000 -0.306000
3.274000 -0.067000 -0.295000
3.274000 -0.064000 -0.285000
3.272000 -0.061000 -0.275000
3.275000 -0.059000 -0.264000
3.235000 0.044000 -0.079000
3.206000 0.086000 -0.036000
3.211000 0.077000 -0.032000
3.232000 0.101000 0.033000
3.230000 0.111000 0.037000
3.153000 0.156000 0.052000
3.127000 0.165000 0.055000
3.125000 0.174000 0.059000
3.424000 0.029000 -1.061000
3.313000 0.029000 -1.004000
3.240000 0.014000 -0.138000
3.248000 0.013000 -0.128000
3.169000 0.060000 -0.055000
3.145000 0.067000 -0.062000
3.166000 0.075000 -0.069000
3.157000 0.082000 -0.076000
3.141000 0.089000 -0.082000
3.201000 0.234000 -0.022000
3.180000 0.222000 -0.020000
3.124000 0.208000 -0.019000
3.130000 0.199000 -0.018000
3.128000 0.188000 -0.017000
3.135000 0.179000 -0.016000
3.152000 0.129000 -0.011000
3.174000 0.119000 -0.010000
3.200000 0.110000 -0.009000
3.206000 0.100000 -0.008000
3.253000 0.089000 0.065000
3.246000 0.097000 0.072000
3.117000 0.117000 0.087000
3.239000 0.100000 0.042000
3.233000 0.109000 0.046000
3.139000 0.144000 0.060000
3.131000 0.153000 0.064000
3.115000 0.161000 0.068000
3.123000 0.171000 0.072000
3.239000 0.022000 -0.124000
3.246000 0.020000 -0.114000
3.169000 0.065000 -0.052000
3.169000 0.073000 -0.058000
3.173000 0.081000 -0.064000
3.164000 0.089000 -0.071000
3.226000 0.236000 -0.004000
3.204000 0.224000 -0.004000
3.096000 0.206000 -0.003000
3.100000 0.197000 -0.003000
3.129000 0.188000 -0.003000
3.147000 0.179000 -0.002000
3.203000 0.172000 -0.002000
3.200000 0.161000 -0.002000
3.190000 0.151000 -0.002000
3.187000 0.140000 -0.001000
3.187000 0.130000 -0.001000
3.190000 0.120000 -0.001000
3.211000 0.110000 -0.001000
3.263000 0.093000 0.080000
3.262000 -0.032000 -0.197000
3.264000 -0.034000 -0.208000
3.259000 -0.036000 -0.218000
3.260000 -0.037000 -0.229000
3.256000 -0.039000 -0.239000
3.390000 -0.091000 -0.736000
3.387000 -0.092000 -0.746000
3.404000 -0.093000 -0.762000
3.250000 0.048000 -0.090000
3.240000 0.043000 -0.081000
3.207000 0.092000 -0.034000
3.107000 0.108000 -0.040000
3.151000 0.218000 0.066000
3.152000 0.208000 0.063000
3.153000 0.198000 0.060000
3.152000 0.188000 0.057000
3.133000 0.177000 0.054000
3.145000 0.168000 0.051000
3.160000 0.159000 0.049000
3.165000 0.150000 0.046000
3.222000 0.112000 0.034000
3.221000 0.103000 0.031000
3.226000 0.093000 0.028000
3.238000 0.016000 -0.116000
3.237000 0.018000 -0.126000
3.140000 0.084000 -0.081000
3.138000 0.076000 -0.074000
3.130000 0.069000 -0.067000
3.204000 0.111000 -0.005000
3.190000 0.120000 -0.005000
3.188000 0.131000 -0.005000
3.190000 0.141000 -0.006000
3.195000 0.152000 -0.006000
3.196000 0.162000 -0.007000
3.197000 0.172000 -0.007000
3.131000 0.189000 -0.007000
3.092000 0.197000 -0.008000
3.103000 0.208000 -0.008000
3.230000 0.237000 -0.009000
3.097000 0.123000 0.086000
3.111000 0.116000 0.081000
3.244000 0.095000 0.066000
3.242000 0.086000 0.060000
3.247000 0.044000 -0.090000
3.211000 0.085000 -0.042000
3.204000 0.076000 -0.037000
3.226000 0.100000 0.027000
3.228000 0.111000 0.030000
3.228000 0.121000 0.033000
3.165000 0.158000 0.043000
3.158000 0.167000 0.046000
3.139000 0.176000 0.048000
3.149000 0.186000 0.051000
3.155000 0.197000 0.054000
3.159000 0.207000 0.057000
3.151000 0.216000 0.060000
3.174000 0.090000 -0.061000
3.177000 0.081000 -0.055000
3.172000 0.073000 -0.050000
3.167000 0.064000 -0.044000
3.214000 0.110000 0.013000
3.186000 0.139000 0.017000
3.183000 0.150000 0.018000
3.183000 0.160000 0.020000
3.098000 0.175000 0.022000
3.095000 0.185000 0.023000
3.098000 0.195000 0.025000
3.107000 0.206000 0.026000
3.210000 0.233000 0.030000
3.167000 0.250000 0.033000
3.385000 -0.096000 -0.687000
3.252000 -0.022000 -0.218000
3.260000 -0.021000 -0.208000
3.250000 -0.020000 -0.197000
3.257000 -0.019000 -0.187000
3.226000 0.051000 -0.071000
3.228000 0.057000 -0.079000
3.175000 0.068000 -0.095000
3.196000 0.221000 -0.066000
3.118000 0.109000 -0.032000
3.141000 0.100000 -0.029000
3.205000 0.092000 -0.027000
3.232000 0.094000 0.043000
3.242000 0.103000 0.048000
3.245000 0.113000 0.052000
3.108000 0.135000 0.063000
3.124000 0.145000 0.068000
3.122000 0.154000 0.072000
3.126000 0.164000 0.077000
3.238000 0.025000 -0.118000
3.240000 0.023000 -0.108000
3.172000 0.063000 -0.046000
3.187000 0.072000 -0.053000
3.184000 0.080000 -0.058000
3.172000 0.088000 -0.064000
3.219000 0.230000 0.004000
3.080000 0.200000 0.004000
3.099000 0.191000 0.004000
3.136000 0.183000 0.004000
3.177000 0.175000 0.004000
3.195000 0.166000 0.004000
3.195000 0.155000 0.003000
3.186000 0.144000 0.003000
3.184000 0.134000 0.003000
3.186000 0.124000 0.003000
3.214000 0.104000 0.002000
3.253000 -0.023000 -0.182000
3.258000 -0.024000 -0.193000
3.257000 -0.025000 -0.203000
3.252000 -0.026000 -0.213000
3.253000 -0.028000 -0.234000
3.372000 -0.062000 -0.864000
3.240000 0.044000 -0.075000
3.209000 0.087000 -0.028000
3.193000 0.097000 -0.032000
3.122000 0.114000 -0.037000
3.191000 0.215000 -0.069000
3.197000 0.226000 -0.072000
3.164000 0.202000 0.070000
3.163000 0.192000 0.067000
3.146000 0.181000 0.063000
3.130000 0.171000 0.059000
3.137000 0.161000 0.056000
3.153000 0.152000 0.053000
3.226000 0.107000 0.037000
3.226000 0.097000 0.034000
3.241000 0.020000 -0.110000
3.236000 0.022000 -0.120000
3.233000 0.024000 -0.130000
3.132000 0.091000 -0.081000
3.144000 0.083000 -0.074000
3.143000 0.076000 -0.068000
3.141000 0.068000 -0.061000
3.190000 0.126000 0.000000
3.190000 0.136000 0.000000
3.196000 0.147000 0.000000
3.197000 0.157000 0.000000
3.202000 0.168000 0.000000
3.132000 0.185000 0.000000
3.096000 0.193000 0.000000
3.085000 0.202000 0.000000
3.217000 0.231000 0.000000
3.222000 0.242000 0.000000
3.116000 0.116000 0.089000
3.248000 0.096000 0.073000
3.244000 0.087000 0.067000
3.283000 -0.096000 -0.386000
3.278000 -0.093000 -0.375000
3.271000 -0.090000 -0.364000
3.279000 -0.087000 -0.354000
3.273000 -0.084000 -0.343000
3.273000 -0.081000 -0.333000
3.276000 -0.079000 -0.323000
3.279000 -0.076000 -0.313000
3.276000 -0.073000 -0.302000
3.239000 0.044000 -0.082000
3.208000 0.084000 -0.037000
3.206000 0.075000 -0.033000
3.232000 0.103000 0.032000
3.234000 0.113000 0.036000
3.149000 0.158000 0.051000
3.131000 0.167000 0.054000
3.136000 0.177000 0.057000
3.168000 0.198000 0.064000
3.236000 0.013000 -0.158000
3.243000 0.012000 -0.148000
3.248000 0.011000 -0.137000
3.171000 0.060000 -0.057000
3.145000 0.067000 -0.064000
3.158000 0.075000 -0.071000
3.149000 0.082000 -0.078000
3.136000 0.089000 -0.084000
3.200000 0.232000 -0.025000
3.125000 0.207000 -0.022000
3.132000 0.197000 -0.020000
3.124000 0.187000 -0.019000
3.128000 0.177000 -0.018000
3.151000 0.127000 -0.013000
3.169000 0.118000 -0.012000
3.191000 0.108000 -0.011000
3.203000 0.098000 -0.010000
3.249000 0.091000 0.065000
3.252000 0.099000 0.071000
3.122000 0.120000 0.086000
3.272000 -0.072000 -0.287000
3.273000 -0.074000 -0.297000
3.272000 -0.076000 -0.307000
3.275000 -0.079000 -0.318000
3.273000 -0.081000 -0.328000
3.272000 -0.083000 -0.339000
3.274000 -0.086000 -0.349000
3.277000 -0.088000 -0.360000
3.273000 -0.090000 -0.370000
3.276000 -0.092000 -0.381000
3.279000 -0.095000 -0.392000
3.275000 -0.097000 -0.402000
3.274000 -0.099000 -0.412000
3.283000 -0.101000 -0.424000
3.275000 -0.103000 -0.433000
3.279000 -0.105000 -0.444000
3.282000 -0.108000 -0.455000
3.237000 0.040000 -0.095000
3.217000 0.078000 -0.037000
3.213000 0.088000 -0.042000
3.181000 0.246000 0.050000
3.161000 0.234000 0.048000
3.165000 0.224000 0.046000
3.165000 0.214000 0.044000
3.109000 0.191000 0.040000
3.104000 0.180000 0.038000
3.109000 0.171000 0.036000
3.176000 0.154000 0.033000
3.178000 0.144000 0.030000
3.223000 0.116000 0.024000
3.213000 0.105000 0.022000
3.246000 0.007000 -0.127000
3.239000 0.007000 -0.137000
3.245000 0.008000 -0.148000
3.140000 0.077000 -0.089000
3.117000 0.070000 -0.081000
3.166000 0.065000 -0.074000
3.219000 0.059000 -0.068000
3.197000 0.108000 -0.014000
3.177000 0.118000 -0.015000
3.155000 0.127000 -0.016000
3.131000 0.136000 -0.018000
3.126000 0.176000 -0.022000
3.123000 0.186000 -0.024000
3.129000 0.196000 -0.025000
3.125000 0.206000 -0.026000
3.200000 0.232000 -0.029000
3.111000 0.141000 0.081000
3.103000 0.132000 0.076000
3.246000 0.101000 0.059000
3.231000 0.092000 0.053000
3.246000 0.035000 -0.090000
3.243000 0.038000 -0.100000
3.184000 0.092000 -0.056000
3.196000 0.084000 -0.050000
3.192000 0.075000 -0.045000
3.165000 0.066000 -0.039000
3.223000 0.099000 0.018000
3.222000 0.110000 0.020000
3.222000 0.120000 0.022000
3.180000 0.149000 0.027000
3.173000 0.158000 0.029000
3.156000 0.168000 0.031000
3.108000 0.185000 0.034000
3.118000 0.195000 0.036000
3.113000 0.205000 0.038000
3.162000 0.228000 0.043000
3.170000 0.239000 0.045000
3.187000 0.250000 0.048000
3.370000 -0.073000 -0.798000
3.258000 -0.008000 -0.187000
3.250000 -0.007000 -0.176000
3.251000 -0.007000 -0.166000
3.211000 0.055000 -0.068000
3.116000 0.067000 -0.082000
3.137000 0.073000 -0.090000
3.207000 0.244000 -0.059000
3.194000 0.233000 -0.056000
3.186000 0.222000 -0.053000
3.188000 0.213000 -0.050000
3.188000 0.202000 -0.048000
3.128000 0.130000 -0.030000
3.116000 0.119000 -0.028000
3.114000 0.110000 -0.025000
3.209000 0.093000 -0.021000
3.238000 0.092000 0.050000
3.246000 0.102000 0.055000
3.247000 0.111000 0.060000
3.113000 0.133000 0.072000
3.113000 0.142000 0.077000
3.242000 0.032000 -0.116000
3.234000 0.029000 -0.106000
3.181000 0.066000 -0.043000
3.177000 0.092000 -0.059000
3.175000 0.257000 0.019000
3.173000 0.247000 0.018000
3.211000 0.229000 0.017000
3.090000 0.200000 0.015000
3.095000 0.190000 0.015000
3.163000 0.174000 0.014000
3.182000 0.154000 0.012000
3.182000 0.144000 0.012000
3.187000 0.134000 0.011000
3.207000 0.104000 0.008000
3.251000 -0.011000 -0.162000
3.250000 -0.011000 -0.172000
3.249000 -0.012000 -0.183000
3.257000 -0.013000 -0.194000
3.364000 -0.003000 -0.976000
3.351000 -0.002000 -0.984000
3.233000 0.048000 -0.072000
3.184000 0.099000 -0.026000
3.118000 0.106000 -0.028000
3.114000 0.116000 -0.030000
3.123000 0.126000 -0.033000
3.193000 0.199000 -0.052000
3.188000 0.209000 -0.054000
3.192000 0.219000 -0.057000
3.200000 0.230000 -0.059000
3.207000 0.240000 -0.062000
3.121000 0.166000 0.069000
3.125000 0.157000 0.065000
3.147000 0.148000 0.062000
3.237000 0.104000 0.043000
3.235000 0.095000 0.039000
3.237000 0.026000 -0.108000
3.248000 0.029000 -0.118000
3.160000 0.089000 -0.071000
3.162000 0.081000 -0.064000
3.150000 0.073000 -0.058000
3.165000 0.065000 -0.052000
3.190000 0.135000 0.007000
3.184000 0.145000 0.007000
3.186000 0.155000 0.008000
3.154000 0.174000 0.009000
3.137000 0.183000 0.010000
3.098000 0.191000 0.010000
3.089000 0.200000 0.011000
3.212000 0.229000 0.013000
3.219000 0.240000 0.014000
3.170000 0.257000 0.015000
3.252000 0.092000 0.079000
3.252000 0.084000 0.072000
3.272000 -0.109000 -0.536000
3.272000 -0.106000 -0.525000
3.273000 -0.103000 -0.515000
3.274000 -0.101000 -0.505000
3.275000 -0.098000 -0.494000
3.277000 -0.096000 -0.484000
3.275000 -0.093000 -0.474000
3.270000 -0.091000 -0.462000
3.278000 -0.088000 -0.453000
3.268000 -0.054000 -0.295000
3.262000 -0.051000 -0.284000
3.266000 -0.049000 -0.274000
3.268000 -0.047000 -0.264000
3.263000 -0.045000 -0.253000
3.263000 -0.043000 -0.243000
3.269000 -0.041000 -0.233000
3.268000 -0.039000 -0.222000
3.239000 0.048000 -0.079000
3.207000 0.086000 -0.032000
3.236000 0.101000 0.038000
3.239000 0.111000 0.042000
3.140000 0.155000 0.059000
3.125000 0.163000 0.063000
3.128000 0.173000 0.067000
3.252000 0.065000 -1.104000
3.228000 0.065000 -1.085000
3.212000 0.065000 -1.068000
3.209000 0.066000 -1.056000
3.206000 0.066000 -1.045000
3.276000 0.069000 -1.045000
3.282000 0.069000 -1.036000
3.238000 0.018000 -0.126000
3.166000 0.062000 -0.053000
3.156000 0.070000 -0.059000
3.166000 0.078000 -0.066000
3.158000 0.086000 -0.073000
3.140000 0.093000 -0.079000
3.211000 0.225000 -0.011000
3.117000 0.199000 -0.010000
3.131000 0.189000 -0.009000
3.141000 0.180000 -0.008000
3.179000 0.130000 -0.006000
3.183000 0.120000 -0.005000
3.203000 0.111000 -0.005000
3.211000 0.101000 -0.004000
3.260000 0.094000 0.076000
3.267000 -0.044000 -0.225000
3.258000 -0.046000 -0.235000
3.263000 -0.048000 -0.246000
3.270000 -0.050000 -0.257000
3.267000 -0.052000 -0.267000
3.270000 -0.054000 -0.278000
3.235000 -0.097000 -0.579000
3.237000 -0.101000 -0.611000
3.466000 -0.111000 -0.689000
3.251000 0.046000 -0.095000
3.245000 0.041000 -0.085000
3.205000 0.088000 -0.036000
3.186000 0.234000 0.062000
3.159000 0.222000 0.059000
3.144000 0.212000 0.056000
3.141000 0.201000 0.054000
3.131000 0.191000 0.051000
3.128000 0.181000 0.048000
3.131000 0.171000 0.046000
3.166000 0.153000 0.041000
3.223000 0.116000 0.031000
3.221000 0.105000 0.029000
3.224000 0.095000 0.026000
3.237000 0.013000 -0.124000
3.236000 0.015000 -0.134000
3.128000 0.083000 -0.086000
3.129000 0.076000 -0.079000
3.123000 0.069000 -0.071000
3.226000 0.057000 -0.059000
3.210000 0.107000 -0.008000
3.191000 0.117000 -0.009000
3.185000 0.127000 -0.009000
3.194000 0.169000 -0.012000
3.129000 0.185000 -0.013000
3.123000 0.195000 -0.014000
3.117000 0.205000 -0.014000
3.226000 0.233000 -0.016000
3.105000 0.129000 0.084000
3.115000 0.121000 0.079000
3.242000 0.099000 0.065000
3.240000 0.090000 0.059000
3.244000 0.082000 0.053000
3.238000 0.039000 -0.087000
3.208000 0.079000 -0.041000
3.180000 0.069000 -0.036000
3.229000 0.098000 0.023000
3.218000 0.107000 0.025000
3.224000 0.118000 0.028000
3.173000 0.156000 0.037000
3.173000 0.166000 0.040000
3.129000 0.183000 0.044000
3.135000 0.193000 0.047000
3.141000 0.204000 0.050000
3.146000 0.214000 0.052000
3.161000 0.225000 0.055000
3.188000 0.237000 0.058000
3.358000 -0.042000 -0.900000
3.245000 0.001000 -0.167000
3.251000 0.001000 -0.156000
3.252000 0.001000 -0.146000
3.194000 0.057000 -0.063000
3.132000 0.070000 -0.077000
3.136000 0.077000 -0.085000
3.212000 0.239000 -0.044000
3.195000 0.228000 -0.041000
3.179000 0.217000 -0.039000
3.188000 0.207000 -0.037000
3.174000 0.196000 -0.035000
3.124000 0.123000 -0.021000
3.124000 0.113000 -0.020000
3.210000 0.096000 -0.017000
3.246000 0.097000 0.059000
3.254000 0.106000 0.065000
3.111000 0.127000 0.078000
3.242000 0.036000 -0.106000
3.246000 0.032000 -0.096000
3.180000 0.066000 -0.038000
3.211000 0.076000 -0.043000
3.180000 0.258000 0.033000
3.165000 0.247000 0.032000
3.173000 0.237000 0.031000
3.154000 0.215000 0.028000
3.094000 0.201000 0.027000
3.094000 0.191000 0.025000
3.095000 0.181000 0.024000
3.111000 0.172000 0.023000
3.180000 0.156000 0.021000
3.183000 0.146000 0.020000
3.186000 0.135000 0.018000
3.218000 0.106000 0.014000
3.250000 -0.002000 -0.148000
3.250000 -0.002000 -0.159000
3.240000 -0.002000 -0.169000
3.329000 0.056000 -1.017000
3.213000 0.057000 -1.003000
3.202000 0.059000 -1.010000
3.209000 0.061000 -1.023000
3.211000 0.062000 -1.035000
3.211000 0.064000 -1.045000
3.213000 0.066000 -1.057000
3.215000 0.068000 -1.068000
3.217000 0.070000 -1.080000
3.216000 0.072000 -1.090000
3.198000 0.066000 -0.088000
3.235000 0.054000 -0.072000
3.206000 0.097000 -0.020000
3.129000 0.115000 -0.024000
3.130000 0.125000 -0.026000
3.139000 0.135000 -0.028000
3.117000 0.184000 -0.037000
3.185000 0.208000 -0.042000
3.184000 0.218000 -0.044000
3.196000 0.229000 -0.046000
3.203000 0.240000 -0.048000
3.121000 0.165000 0.079000
3.116000 0.155000 0.074000
3.126000 0.147000 0.070000
3.117000 0.137000 0.066000
3.235000 0.104000 0.050000
3.237000 0.095000 0.046000
3.233000 0.085000 0.041000
3.239000 0.031000 -0.103000
3.255000 0.034000 -0.114000
3.163000 0.095000 -0.067000
3.166000 0.087000 -0.061000
3.174000 0.079000 -0.056000
3.166000 0.070000 -0.050000
3.168000 0.062000 -0.044000
3.216000 0.111000 0.012000
3.185000 0.141000 0.015000
3.177000 0.151000 0.016000
3.177000 0.161000 0.017000
3.096000 0.177000 0.019000
3.095000 0.187000 0.020000
3.094000 0.197000 0.022000
3.112000 0.208000 0.023000
3.197000 0.224000 0.025000
3.211000 0.235000 0.027000
3.171000 0.253000 0.029000
3.240000 -0.096000 -0.623000
3.229000 -0.093000 -0.611000
3.253000 -0.091000 -0.605000
3.257000 -0.028000 -0.238000
3.256000 -0.027000 -0.227000
3.248000 -0.025000 -0.216000
3.256000 -0.024000 -0.206000
3.254000 -0.023000 -0.196000
3.262000 -0.021000 -0.186000
3.233000 0.050000 -0.072000
3.250000 0.057000 -0.081000
3.190000 0.068000 -0.097000
3.114000 0.108000 -0.033000
3.205000 0.091000 -0.028000
3.237000 0.095000 0.042000
