# .PCD v0.7 - Point Cloud Data file format
VERSION 0.7
FIELDS x y z
SIZE 4 4 4
TYPE F F F
COUNT 1 1 1
WIDTH 1643
HEIGHT 1
VIEWPOINT 0 0 0 1 0 0 0
POINTS 1643
DATA ascii
3.252000 0.064000 -0.314000
3.262000 0.062000 -0.305000
3.279000 0.061000 -0.296000
2.610000 0.191000 -0.136000
2.617000 0.198000 -0.142000
3.309000 -0.021000 -0.164000
3.304000 -0.022000 -0.175000
2.581000 0.174000 -0.056000
3.269000 0.058000 -0.299000
3.255000 0.060000 -0.308000
3.250000 0.062000 -0.318000
2.590000 0.182000 -0.082000
3.335000 0.017000 -0.228000
3.341000 0.017000 -0.217000
3.337000 0.016000 -0.206000
3.352000 0.015000 -0.196000
3.350000 0.015000 -0.185000
3.339000 0.014000 -0.174000
3.333000 0.013000 -0.163000
3.333000 0.012000 -0.152000
2.588000 0.172000 -0.019000
2.594000 0.184000 -0.087000
3.331000 0.008000 -0.161000
3.339000 0.009000 -0.172000
3.341000 0.010000 -0.183000
3.346000 0.010000 -0.194000
3.344000 0.011000 -0.205000
3.333000 0.012000 -0.215000
3.335000 0.013000 -0.226000
2.593000 0.169000 -0.022000
2.613000 0.199000 -0.124000
2.609000 0.192000 -0.119000
3.319000 -0.008000 -0.173000
3.321000 -0.007000 -0.162000
2.603000 0.186000 -0.119000
2.609000 0.193000 -0.124000
3.314000 -0.012000 -0.169000
3.320000 -0.013000 -0.180000
2.585000 0.171000 -0.045000
2.589000 0.178000 -0.069000
3.310000 0.034000 -0.268000
3.312000 0.033000 -0.258000
3.318000 0.032000 -0.248000
3.325000 0.031000 -0.237000
3.332000 0.030000 -0.227000
3.337000 0.029000 -0.217000
3.340000 0.027000 -0.206000
3.348000 0.026000 -0.196000
3.343000 0.025000 -0.185000
3.340000 0.023000 -0.174000
3.328000 0.022000 -0.163000
2.593000 0.174000 -0.009000
2.596000 0.166000 -0.009000
2.589000 0.179000 -0.073000
3.330000 0.017000 -0.159000
3.337000 0.018000 -0.170000
3.348000 0.019000 -0.181000
3.350000 0.021000 -0.192000
3.337000 0.023000 -0.213000
3.329000 0.024000 -0.223000
3.329000 0.026000 -0.234000
3.320000 0.027000 -0.244000
3.320000 0.028000 -0.255000
3.307000 0.030000 -0.264000
3.304000 0.031000 -0.275000
2.598000 0.170000 -0.013000
2.592000 0.178000 -0.013000
2.603000 0.190000 -0.105000
2.603000 0.183000 -0.100000
3.367000 0.000000 -0.185000
3.340000 0.000000 -0.173000
3.327000 0.000000 -0.161000
2.583000 0.168000 -0.031000
2.601000 0.186000 -0.106000
3.329000 -0.003000 -0.163000
3.355000 -0.003000 -0.175000
3.364000 -0.004000 -0.187000
2.585000 0.169000 -0.035000
2.588000 0.177000 -0.037000
2.624000 0.201000 -0.148000
2.617000 0.194000 -0.143000
2.586000 0.175000 -0.058000
3.276000 0.054000 -0.306000
3.281000 0.053000 -0.296000
3.293000 0.051000 -0.286000
3.301000 0.050000 -0.277000
2.616000 0.189000 -0.143000
2.620000 0.196000 -0.148000
2.602000 0.175000 0.000000
2.581000 0.175000 -0.062000
3.288000 0.047000 -0.283000
3.286000 0.049000 -0.293000
3.271000 0.050000 -0.302000
3.267000 0.052000 -0.312000
2.599000 0.187000 -0.090000
2.594000 0.179000 -0.086000
3.355000 0.010000 -0.195000
3.354000 0.010000 -0.184000
3.339000 0.009000 -0.172000
3.328000 0.009000 -0.161000
2.591000 0.170000 -0.023000
2.589000 0.176000 -0.061000
3.272000 0.049000 -0.298000
3.288000 0.047000 -0.289000
3.294000 0.046000 -0.279000
3.306000 0.045000 -0.269000
3.306000 0.043000 -0.258000
3.335000 0.030000 -0.175000
3.329000 0.028000 -0.164000
2.623000 0.193000 -0.150000
2.593000 0.175000 -0.003000
2.603000 0.167000 -0.003000
2.592000 0.174000 -0.064000
2.590000 0.182000 -0.066000
3.338000 0.024000 -0.169000
3.295000 0.041000 -0.273000
3.290000 0.043000 -0.283000
3.286000 0.045000 -0.293000
3.271000 0.047000 -0.302000
2.599000 0.176000 -0.089000
2.592000 0.183000 -0.092000
3.330000 0.004000 -0.152000
3.327000 0.004000 -0.163000
3.346000 0.004000 -0.175000
3.352000 0.005000 -0.186000
2.593000 0.171000 -0.027000
2.610000 0.200000 -0.132000
2.607000 0.192000 -0.127000
3.301000 -0.013000 -0.176000
3.311000 -0.012000 -0.166000
2.584000 0.179000 -0.049000
2.588000 0.171000 -0.046000
3.249000 0.072000 -0.312000
3.260000 0.070000 -0.303000
2.608000 0.186000 -0.127000
2.610000 0.194000 -0.131000
3.316000 -0.017000 -0.165000
3.306000 -0.018000 -0.175000
2.583000 0.176000 -0.052000
3.262000 0.068000 -0.306000
3.250000 0.070000 -0.315000
2.593000 0.177000 -0.074000
3.326000 0.025000 -0.248000
3.329000 0.024000 -0.238000
3.333000 0.023000 -0.227000
3.333000 0.022000 -0.217000
3.341000 0.021000 -0.206000
3.348000 0.021000 -0.196000
3.345000 0.019000 -0.185000
3.339000 0.018000 -0.174000
3.333000 0.017000 -0.163000
2.594000 0.173000 -0.014000
2.600000 0.165000 -0.013000
2.592000 0.178000 -0.079000
2.592000 0.186000 -0.082000
3.330000 0.012000 -0.160000
3.336000 0.013000 -0.171000
3.344000 0.014000 -0.182000
3.350000 0.015000 -0.194000
3.340000 0.016000 -0.204000
3.339000 0.017000 -0.214000
3.330000 0.018000 -0.225000
3.329000 0.019000 -0.235000
3.324000 0.020000 -0.246000
3.318000 0.022000 -0.256000
2.593000 0.170000 -0.018000
2.594000 0.178000 -0.018000
2.603000 0.194000 -0.113000
2.604000 0.186000 -0.109000
3.362000 -0.004000 -0.184000
3.334000 -0.003000 -0.172000
3.323000 -0.003000 -0.161000
2.604000 0.184000 -0.111000
2.607000 0.191000 -0.115000
3.321000 -0.008000 -0.164000
3.342000 -0.008000 -0.176000
3.357000 -0.009000 -0.187000
2.623000 0.195000 -0.153000
2.589000 0.174000 -0.062000
3.285000 0.045000 -0.289000
3.297000 0.043000 -0.279000
3.301000 0.042000 -0.269000
3.312000 0.041000 -0.259000
3.342000 0.028000 -0.175000
3.332000 0.027000 -0.164000
2.600000 0.167000 -0.004000
2.587000 0.180000 -0.068000
3.335000 0.022000 -0.168000
3.339000 0.024000 -0.179000
3.305000 0.036000 -0.262000
3.303000 0.038000 -0.272000
3.288000 0.040000 -0.281000
3.286000 0.041000 -0.292000
2.597000 0.178000 -0.009000
2.594000 0.185000 -0.095000
3.353000 0.005000 -0.184000
3.343000 0.005000 -0.173000
3.326000 0.005000 -0.161000
2.587000 0.169000 -0.027000
2.601000 0.181000 -0.097000
2.594000 0.188000 -0.100000
3.330000 0.000000 -0.152000
3.331000 0.000000 -0.163000
3.351000 0.000000 -0.175000
3.355000 0.000000 -0.186000
2.590000 0.178000 -0.032000
2.614000 0.197000 -0.137000
2.611000 0.190000 -0.132000
3.304000 -0.017000 -0.177000
3.317000 -0.016000 -0.167000
2.588000 0.170000 -0.051000
3.252000 0.065000 -0.315000
3.260000 0.063000 -0.305000
3.273000 0.061000 -0.296000
2.609000 0.191000 -0.136000
2.613000 0.198000 -0.141000
3.313000 -0.020000 -0.165000
3.308000 -0.022000 -0.175000
2.584000 0.175000 -0.056000
3.266000 0.059000 -0.298000
3.258000 0.061000 -0.307000
3.244000 0.063000 -0.316000
3.242000 0.065000 -0.326000
2.591000 0.182000 -0.082000
3.336000 0.018000 -0.227000
3.331000 0.017000 -0.216000
3.341000 0.017000 -0.205000
3.348000 0.016000 -0.195000
3.347000 0.015000 -0.184000
3.339000 0.014000 -0.173000
3.329000 0.013000 -0.161000
2.589000 0.171000 -0.018000
2.595000 0.178000 -0.084000
2.594000 0.186000 -0.087000
3.328000 0.008000 -0.153000
3.329000 0.009000 -0.164000
3.339000 0.010000 -0.175000
3.345000 0.011000 -0.186000
3.351000 0.011000 -0.197000
3.336000 0.012000 -0.207000
3.334000 0.013000 -0.218000
3.326000 0.014000 -0.228000
2.588000 0.173000 -0.022000
2.603000 0.195000 -0.120000
2.603000 0.188000 -0.116000
3.325000 -0.007000 -0.177000
3.320000 -0.007000 -0.166000
2.587000 0.171000 -0.041000
2.605000 0.185000 -0.117000
2.608000 0.192000 -0.122000
3.315000 -0.011000 -0.158000
3.319000 -0.012000 -0.169000
3.326000 -0.012000 -0.180000
2.581000 0.172000 -0.045000
2.589000 0.183000 -0.070000
2.593000 0.176000 -0.067000
3.304000 0.036000 -0.271000
3.311000 0.035000 -0.261000
3.314000 0.034000 -0.251000
3.323000 0.033000 -0.241000
3.325000 0.031000 -0.230000
3.332000 0.030000 -0.220000
3.346000 0.026000 -0.189000
3.340000 0.025000 -0.177000
3.336000 0.023000 -0.167000
2.598000 0.169000 -0.008000
2.587000 0.178000 -0.071000
3.336000 0.019000 -0.167000
3.342000 0.020000 -0.178000
3.349000 0.022000 -0.189000
3.322000 0.027000 -0.230000
3.322000 0.028000 -0.241000
3.317000 0.030000 -0.251000
3.307000 0.031000 -0.261000
3.304000 0.033000 -0.272000
3.289000 0.034000 -0.281000
2.596000 0.168000 -0.012000
2.592000 0.176000 -0.012000
2.601000 0.184000 -0.099000
3.360000 0.002000 -0.186000
3.348000 0.002000 -0.175000
3.329000 0.002000 -0.163000
3.325000 0.002000 -0.152000
2.598000 0.185000 -0.093000
2.598000 0.178000 -0.089000
3.357000 0.008000 -0.195000
3.358000 0.007000 -0.184000
3.348000 0.007000 -0.172000
3.331000 0.007000 -0.161000
3.323000 0.006000 -0.150000
2.592000 0.169000 -0.025000
2.600000 0.176000 -0.092000
2.597000 0.183000 -0.095000
3.330000 0.002000 -0.154000
3.334000 0.002000 -0.165000
3.358000 0.002000 -0.177000
3.356000 0.002000 -0.188000
2.591000 0.172000 -0.029000
2.591000 0.170000 -0.030000
2.602000 0.187000 -0.104000
3.328000 -0.002000 -0.163000
3.355000 -0.002000 -0.175000
3.356000 -0.002000 -0.186000
2.589000 0.169000 -0.034000
2.581000 0.177000 -0.036000
2.616000 0.201000 -0.146000
2.617000 0.195000 -0.141000
2.584000 0.176000 -0.056000
3.263000 0.059000 -0.316000
3.265000 0.057000 -0.306000
3.280000 0.056000 -0.297000
3.282000 0.054000 -0.286000
3.289000 0.052000 -0.277000
2.614000 0.189000 -0.140000
2.619000 0.196000 -0.145000
2.584000 0.173000 -0.059000
3.284000 0.051000 -0.290000
3.268000 0.053000 -0.299000
3.258000 0.055000 -0.309000
3.259000 0.057000 -0.319000
2.594000 0.180000 -0.085000
3.349000 0.012000 -0.195000
3.348000 0.011000 -0.184000
3.344000 0.011000 -0.173000
3.325000 0.010000 -0.161000
3.327000 0.009000 -0.151000
2.585000 0.171000 -0.021000
2.593000 0.175000 -0.087000
2.592000 0.183000 -0.090000
3.329000 0.005000 -0.161000
3.343000 0.006000 -0.173000
3.348000 0.006000 -0.184000
3.353000 0.007000 -0.195000
2.586000 0.169000 -0.025000
2.607000 0.195000 -0.126000
2.612000 0.188000 -0.122000
3.306000 -0.012000 -0.179000
3.315000 -0.011000 -0.168000
2.583000 0.172000 -0.045000
3.255000 0.074000 -0.313000
3.262000 0.072000 -0.304000
2.611000 0.187000 -0.126000
2.609000 0.195000 -0.130000
3.313000 -0.016000 -0.164000
3.305000 -0.016000 -0.174000
2.581000 0.175000 -0.050000
3.253000 0.072000 -0.314000
2.595000 0.186000 -0.077000
2.590000 0.178000 -0.074000
3.319000 0.027000 -0.249000
3.326000 0.026000 -0.239000
3.336000 0.025000 -0.229000
3.337000 0.024000 -0.218000
3.341000 0.023000 -0.208000
3.353000 0.022000 -0.198000
3.346000 0.020000 -0.186000
3.337000 0.019000 -0.175000
3.334000 0.018000 -0.164000
3.328000 0.017000 -0.153000
2.593000 0.166000 -0.013000
2.589000 0.178000 -0.078000
2.587000 0.185000 -0.081000
3.329000 0.013000 -0.160000
3.338000 0.014000 -0.171000
3.339000 0.015000 -0.182000
3.350000 0.016000 -0.194000
3.343000 0.017000 -0.204000
3.337000 0.018000 -0.215000
3.332000 0.019000 -0.225000
3.332000 0.020000 -0.236000
3.326000 0.021000 -0.246000
3.311000 0.023000 -0.256000
2.594000 0.171000 -0.017000
2.606000 0.194000 -0.113000
2.603000 0.187000 -0.108000
3.364000 -0.003000 -0.184000
3.337000 -0.003000 -0.172000
3.322000 -0.002000 -0.161000
2.605000 0.184000 -0.111000
2.602000 0.191000 -0.115000
3.320000 -0.007000 -0.164000
3.342000 -0.008000 -0.176000
3.360000 -0.008000 -0.187000
2.583000 0.168000 -0.039000
2.627000 0.197000 -0.153000
2.586000 0.174000 -0.062000
3.285000 0.046000 -0.298000
3.288000 0.045000 -0.287000
3.295000 0.044000 -0.277000
3.306000 0.042000 -0.268000
3.313000 0.041000 -0.258000
3.342000 0.028000 -0.174000
3.339000 0.027000 -0.163000
2.620000 0.192000 -0.152000
2.598000 0.167000 -0.004000
2.590000 0.173000 -0.065000
2.589000 0.181000 -0.068000
3.338000 0.023000 -0.169000
3.337000 0.024000 -0.179000
3.301000 0.037000 -0.262000
3.299000 0.039000 -0.273000
3.295000 0.041000 -0.283000
3.284000 0.042000 -0.293000
2.594000 0.178000 -0.008000
2.595000 0.185000 -0.094000
3.352000 0.006000 -0.184000
3.345000 0.006000 -0.173000
3.329000 0.005000 -0.161000
3.324000 0.005000 -0.150000
2.586000 0.169000 -0.026000
2.596000 0.182000 -0.096000
2.599000 0.190000 -0.100000
3.321000 0.001000 -0.153000
3.328000 0.001000 -0.164000
3.352000 0.001000 -0.176000
3.353000 0.001000 -0.187000
2.591000 0.171000 -0.030000
2.619000 0.205000 -0.141000
2.613000 0.197000 -0.136000
2.611000 0.190000 -0.131000
3.307000 -0.016000 -0.177000
3.314000 -0.015000 -0.166000
2.580000 0.177000 -0.051000
2.590000 0.169000 -0.049000
3.243000 0.068000 -0.322000
3.251000 0.066000 -0.313000
3.263000 0.065000 -0.304000
3.279000 0.063000 -0.295000
2.614000 0.185000 -0.131000
2.613000 0.192000 -0.135000
2.618000 0.200000 -0.140000
3.317000 -0.019000 -0.165000
3.308000 -0.021000 -0.175000
2.584000 0.175000 -0.055000
3.272000 0.061000 -0.298000
3.251000 0.063000 -0.306000
3.245000 0.065000 -0.316000
2.595000 0.183000 -0.080000
2.591000 0.175000 -0.077000
3.327000 0.021000 -0.238000
3.331000 0.020000 -0.228000
3.341000 0.019000 -0.218000
3.342000 0.018000 -0.207000
3.351000 0.018000 -0.196000
3.344000 0.017000 -0.185000
3.337000 0.016000 -0.174000
3.330000 0.015000 -0.163000
3.320000 0.014000 -0.152000
2.588000 0.173000 -0.017000
2.597000 0.165000 -0.016000
2.593000 0.177000 -0.082000
2.592000 0.185000 -0.085000
3.331000 0.010000 -0.162000
3.339000 0.011000 -0.173000
3.347000 0.012000 -0.184000
3.344000 0.013000 -0.195000
3.343000 0.013000 -0.205000
3.337000 0.014000 -0.216000
3.334000 0.015000 -0.226000
2.595000 0.171000 -0.020000
2.609000 0.197000 -0.119000
2.604000 0.189000 -0.114000
3.333000 -0.006000 -0.178000
3.326000 -0.005000 -0.167000
2.616000 0.198000 -0.135000
2.610000 0.191000 -0.130000
3.308000 -0.015000 -0.177000
3.316000 -0.014000 -0.167000
2.586000 0.169000 -0.048000
3.246000 0.070000 -0.321000
3.250000 0.068000 -0.311000
3.268000 0.066000 -0.302000
2.613000 0.187000 -0.130000
2.614000 0.194000 -0.135000
3.316000 -0.019000 -0.167000
3.306000 -0.020000 -0.178000
2.584000 0.178000 -0.054000
3.272000 0.063000 -0.300000
3.255000 0.065000 -0.309000
3.248000 0.068000 -0.319000
2.583000 0.171000 -0.039000
2.604000 0.186000 -0.116000
2.608000 0.194000 -0.120000
3.316000 -0.009000 -0.158000
3.326000 -0.010000 -0.170000
3.349000 -0.011000 -0.182000
2.582000 0.173000 -0.043000
2.626000 0.196000 -0.156000
2.584000 0.181000 -0.067000
2.587000 0.174000 -0.064000
3.296000 0.040000 -0.279000
3.304000 0.039000 -0.269000
3.313000 0.037000 -0.259000
3.323000 0.036000 -0.249000
3.324000 0.035000 -0.238000
3.344000 0.028000 -0.186000
3.340000 0.026000 -0.175000
3.338000 0.025000 -0.164000
2.600000 0.166000 -0.006000
2.589000 0.174000 -0.068000
2.588000 0.181000 -0.071000
3.327000 0.020000 -0.161000
3.335000 0.021000 -0.172000
3.339000 0.023000 -0.183000
3.312000 0.032000 -0.245000
3.315000 0.033000 -0.256000
3.302000 0.035000 -0.266000
3.297000 0.036000 -0.276000
3.291000 0.038000 -0.286000
2.594000 0.172000 -0.010000
2.598000 0.189000 -0.099000
2.596000 0.182000 -0.095000
3.359000 0.004000 -0.192000
3.357000 0.004000 -0.181000
3.339000 0.004000 -0.169000
3.324000 0.003000 -0.157000
2.597000 0.183000 -0.100000
3.323000 0.000000 -0.157000
3.336000 0.000000 -0.168000
3.359000 0.000000 -0.180000
3.355000 0.000000 -0.191000
2.587000 0.174000 -0.033000
2.613000 0.199000 -0.141000
2.612000 0.193000 -0.136000
3.311000 -0.018000 -0.171000
2.581000 0.173000 -0.053000
3.257000 0.064000 -0.320000
3.255000 0.062000 -0.310000
3.265000 0.060000 -0.300000
3.282000 0.059000 -0.291000
2.613000 0.194000 -0.140000
2.620000 0.201000 -0.145000
3.313000 -0.022000 -0.171000
2.581000 0.171000 -0.056000
2.585000 0.180000 -0.059000
3.272000 0.056000 -0.295000
3.260000 0.058000 -0.305000
3.251000 0.060000 -0.314000
3.252000 0.063000 -0.325000
2.595000 0.184000 -0.084000
2.596000 0.177000 -0.081000
3.341000 0.016000 -0.220000
3.344000 0.015000 -0.209000
3.351000 0.015000 -0.198000
3.339000 0.014000 -0.187000
3.346000 0.013000 -0.176000
3.327000 0.012000 -0.165000
3.325000 0.012000 -0.154000
2.589000 0.166000 -0.018000
2.590000 0.182000 -0.087000
3.330000 0.007000 -0.159000
3.332000 0.008000 -0.170000
3.343000 0.009000 -0.181000
3.345000 0.009000 -0.192000
3.346000 0.010000 -0.203000
3.337000 0.011000 -0.213000
2.590000 0.177000 -0.023000
2.608000 0.190000 -0.119000
3.317000 -0.009000 -0.181000
3.314000 -0.008000 -0.170000
3.325000 -0.008000 -0.159000
2.584000 0.173000 -0.042000
2.608000 0.189000 -0.121000
2.603000 0.196000 -0.126000
3.317000 -0.012000 -0.165000
3.319000 -0.013000 -0.176000
2.586000 0.177000 -0.047000
2.589000 0.178000 -0.069000
3.302000 0.035000 -0.277000
3.307000 0.034000 -0.266000
3.315000 0.033000 -0.256000
3.320000 0.032000 -0.246000
3.331000 0.031000 -0.236000
3.334000 0.029000 -0.226000
3.334000 0.028000 -0.215000
3.349000 0.026000 -0.194000
3.347000 0.024000 -0.183000
3.339000 0.023000 -0.172000
3.334000 0.022000 -0.161000
2.600000 0.173000 -0.009000
2.597000 0.164000 -0.009000
2.597000 0.182000 -0.074000
3.334000 0.017000 -0.163000
3.337000 0.019000 -0.174000
3.345000 0.020000 -0.185000
3.334000 0.024000 -0.216000
3.328000 0.025000 -0.227000
3.325000 0.026000 -0.237000
3.318000 0.028000 -0.247000
3.311000 0.029000 -0.257000
3.304000 0.030000 -0.268000
3.296000 0.032000 -0.278000
2.596000 0.173000 -0.013000
2.606000 0.186000 -0.101000
3.365000 0.001000 -0.190000
3.355000 0.001000 -0.178000
3.330000 0.001000 -0.166000
3.322000 0.001000 -0.155000
2.591000 0.172000 -0.032000
2.601000 0.183000 -0.103000
2.601000 0.191000 -0.107000
3.330000 -0.002000 -0.159000
3.343000 -0.003000 -0.171000
3.360000 -0.003000 -0.182000
2.589000 0.175000 -0.036000
2.622000 0.202000 -0.148000
2.621000 0.195000 -0.142000
2.583000 0.177000 -0.057000
3.266000 0.059000 -0.317000
3.271000 0.057000 -0.307000
3.280000 0.056000 -0.297000
3.287000 0.054000 -0.287000
3.291000 0.052000 -0.277000
2.614000 0.189000 -0.141000
2.616000 0.196000 -0.146000
2.596000 0.175000 0.000000
2.584000 0.175000 -0.060000
3.290000 0.050000 -0.282000
3.282000 0.052000 -0.292000
3.270000 0.054000 -0.301000
3.260000 0.056000 -0.311000
3.254000 0.058000 -0.321000
2.596000 0.187000 -0.088000
2.595000 0.179000 -0.084000
3.346000 0.012000 -0.192000
3.351000 0.011000 -0.182000
3.337000 0.011000 -0.170000
3.331000 0.010000 -0.159000
2.589000 0.169000 -0.021000
2.591000 0.178000 -0.088000
2.593000 0.186000 -0.091000
3.328000 0.005000 -0.156000
3.333000 0.006000 -0.167000
3.345000 0.007000 -0.178000
3.344000 0.007000 -0.189000
3.350000 0.008000 -0.200000
2.597000 0.166000 -0.024000
2.593000 0.175000 -0.025000
2.610000 0.192000 -0.124000
2.591000 0.180000 -0.078000
3.325000 0.021000 -0.233000
3.334000 0.021000 -0.222000
3.339000 0.020000 -0.212000
3.349000 0.019000 -0.202000
3.350000 0.018000 -0.191000
3.346000 0.017000 -0.180000
3.335000 0.016000 -0.169000
3.330000 0.015000 -0.157000
2.592000 0.169000 -0.015000
2.596000 0.182000 -0.082000
3.335000 0.011000 -0.158000
3.338000 0.011000 -0.169000
3.343000 0.012000 -0.180000
3.344000 0.013000 -0.191000
3.343000 0.014000 -0.202000
3.341000 0.015000 -0.212000
3.338000 0.016000 -0.223000
3.324000 0.017000 -0.233000
3.321000 0.018000 -0.243000
2.592000 0.177000 -0.020000
3.308000 -0.010000 -0.174000
3.316000 -0.010000 -0.163000
2.583000 0.176000 -0.045000
2.581000 0.168000 -0.043000
3.256000 0.075000 -0.308000
2.608000 0.192000 -0.126000
3.320000 -0.014000 -0.161000
3.310000 -0.015000 -0.171000
2.584000 0.174000 -0.049000
2.590000 0.179000 -0.072000
3.316000 0.030000 -0.259000
3.319000 0.029000 -0.248000
3.323000 0.028000 -0.237000
3.333000 0.027000 -0.227000
3.341000 0.025000 -0.217000
3.342000 0.024000 -0.206000
3.351000 0.023000 -0.196000
3.347000 0.022000 -0.185000
3.339000 0.021000 -0.174000
3.332000 0.019000 -0.163000
2.596000 0.174000 -0.012000
2.599000 0.166000 -0.011000
2.593000 0.172000 -0.073000
2.591000 0.180000 -0.076000
3.335000 0.015000 -0.162000
3.337000 0.016000 -0.173000
3.341000 0.017000 -0.184000
3.355000 0.019000 -0.195000
3.340000 0.020000 -0.205000
3.334000 0.021000 -0.216000
3.337000 0.022000 -0.227000
3.324000 0.023000 -0.237000
3.317000 0.024000 -0.247000
3.308000 0.026000 -0.257000
3.302000 0.027000 -0.267000
2.594000 0.172000 -0.015000
2.603000 0.193000 -0.109000
2.602000 0.185000 -0.105000
3.355000 -0.001000 -0.179000
3.332000 0.000000 -0.167000
3.322000 0.000000 -0.156000
2.584000 0.171000 -0.034000
2.604000 0.183000 -0.107000
2.606000 0.191000 -0.111000
3.328000 -0.005000 -0.162000
3.344000 -0.005000 -0.174000
3.360000 -0.005000 -0.186000
2.586000 0.176000 -0.039000
2.623000 0.199000 -0.150000
2.626000 0.193000 -0.145000
2.589000 0.182000 -0.061000
2.586000 0.174000 -0.058000
3.269000 0.052000 -0.304000
3.284000 0.051000 -0.295000
3.288000 0.049000 -0.284000
3.298000 0.048000 -0.275000
2.619000 0.196000 -0.150000
2.604000 0.173000 -0.002000
2.586000 0.177000 -0.063000
3.293000 0.044000 -0.277000
3.285000 0.046000 -0.286000
3.281000 0.048000 -0.297000
3.270000 0.050000 -0.306000
3.261000 0.052000 -0.316000
2.600000 0.175000 -0.005000
2.597000 0.181000 -0.089000
3.354000 0.009000 -0.189000
3.345000 0.009000 -0.177000
3.329000 0.008000 -0.166000
3.328000 0.008000 -0.155000
2.588000 0.173000 -0.024000
2.595000 0.181000 -0.092000
2.591000 0.188000 -0.096000
3.329000 0.003000 -0.160000
3.338000 0.004000 -0.172000
3.348000 0.004000 -0.183000
3.345000 0.004000 -0.194000
2.612000 0.194000 -0.129000
2.611000 0.187000 -0.124000
3.306000 -0.013000 -0.179000
3.312000 -0.012000 -0.168000
2.582000 0.179000 -0.049000
2.585000 0.171000 -0.047000
3.249000 0.072000 -0.313000
3.263000 0.070000 -0.304000
2.608000 0.187000 -0.127000
2.613000 0.194000 -0.132000
3.316000 -0.017000 -0.165000
3.308000 -0.018000 -0.175000
2.588000 0.176000 -0.052000
3.259000 0.068000 -0.306000
3.253000 0.071000 -0.316000
2.590000 0.184000 -0.077000
2.591000 0.176000 -0.074000
3.316000 0.026000 -0.257000
3.323000 0.025000 -0.247000
3.330000 0.025000 -0.236000
3.337000 0.024000 -0.226000
3.336000 0.023000 -0.215000
3.337000 0.022000 -0.204000
3.351000 0.021000 -0.194000
3.347000 0.020000 -0.183000
3.335000 0.018000 -0.172000
3.330000 0.017000 -0.161000
2.592000 0.172000 -0.014000
2.594000 0.163000 -0.013000
2.587000 0.180000 -0.079000
3.332000 0.013000 -0.163000
3.338000 0.014000 -0.174000
3.346000 0.015000 -0.185000
3.346000 0.016000 -0.196000
3.343000 0.017000 -0.207000
3.332000 0.018000 -0.217000
3.330000 0.019000 -0.227000
3.322000 0.021000 -0.238000
3.324000 0.022000 -0.249000
3.313000 0.023000 -0.258000
2.593000 0.173000 -0.017000
2.609000 0.193000 -0.112000
2.608000 0.185000 -0.107000
3.352000 -0.003000 -0.180000
3.334000 -0.002000 -0.168000
3.328000 -0.002000 -0.157000
2.585000 0.172000 -0.036000
2.600000 0.188000 -0.112000
3.325000 -0.007000 -0.159000
3.335000 -0.007000 -0.170000
3.362000 -0.007000 -0.182000
2.587000 0.173000 -0.040000
2.588000 0.177000 -0.062000
3.286000 0.046000 -0.290000
3.292000 0.045000 -0.280000
3.301000 0.044000 -0.270000
3.316000 0.042000 -0.261000
3.337000 0.029000 -0.176000
3.344000 0.028000 -0.166000
2.619000 0.191000 -0.150000
2.620000 0.198000 -0.155000
2.594000 0.177000 -0.004000
2.600000 0.169000 -0.003000
2.582000 0.179000 -0.066000
3.330000 0.023000 -0.168000
3.305000 0.038000 -0.262000
3.298000 0.040000 -0.272000
3.292000 0.042000 -0.282000
3.284000 0.043000 -0.292000
3.283000 0.045000 -0.302000
2.598000 0.170000 -0.007000
2.600000 0.178000 -0.007000
2.598000 0.186000 -0.094000
2.592000 0.178000 -0.090000
3.351000 0.007000 -0.195000
3.357000 0.007000 -0.184000
3.343000 0.006000 -0.172000
3.331000 0.006000 -0.161000
2.590000 0.169000 -0.025000
2.594000 0.183000 -0.096000
3.330000 0.001000 -0.154000
3.329000 0.002000 -0.165000
3.354000 0.002000 -0.177000
3.350000 0.002000 -0.188000
2.590000 0.171000 -0.029000
2.611000 0.197000 -0.134000
2.610000 0.190000 -0.129000
2.604000 0.193000 -0.115000
2.605000 0.186000 -0.111000
3.346000 -0.005000 -0.183000
3.324000 -0.005000 -0.171000
3.320000 -0.004000 -0.160000
2.587000 0.174000 -0.039000
2.605000 0.184000 -0.114000
2.607000 0.192000 -0.118000
3.325000 -0.009000 -0.165000
3.330000 -0.010000 -0.176000
2.584000 0.169000 -0.042000
2.586000 0.177000 -0.044000
3.310000 -0.015000 -0.176000
3.316000 -0.014000 -0.166000
2.584000 0.177000 -0.050000
2.584000 0.168000 -0.048000
3.239000 0.070000 -0.320000
3.252000 0.068000 -0.311000
3.264000 0.066000 -0.302000
2.612000 0.187000 -0.130000
2.612000 0.194000 -0.135000
3.311000 -0.019000 -0.167000
3.309000 -0.020000 -0.178000
2.585000 0.169000 -0.052000
2.582000 0.177000 -0.054000
3.268000 0.063000 -0.300000
3.255000 0.065000 -0.309000
3.242000 0.067000 -0.318000
2.587000 0.182000 -0.078000
2.595000 0.175000 -0.075000
3.325000 0.023000 -0.247000
3.325000 0.022000 -0.236000
3.335000 0.021000 -0.226000
3.337000 0.020000 -0.215000
3.342000 0.020000 -0.205000
3.346000 0.019000 -0.194000
3.344000 0.018000 -0.183000
3.335000 0.017000 -0.172000
3.331000 0.016000 -0.161000
2.593000 0.171000 -0.016000
2.590000 0.179000 -0.081000
2.591000 0.186000 -0.084000
3.330000 0.011000 -0.162000
3.341000 0.012000 -0.173000
3.345000 0.013000 -0.185000
3.348000 0.014000 -0.196000
3.342000 0.015000 -0.206000
3.340000 0.016000 -0.217000
3.328000 0.017000 -0.227000
3.327000 0.018000 -0.237000
3.319000 0.019000 -0.247000
2.593000 0.171000 -0.019000
2.602000 0.191000 -0.114000
3.342000 -0.005000 -0.180000
3.321000 -0.004000 -0.169000
3.323000 -0.004000 -0.158000
2.584000 0.173000 -0.039000
2.603000 0.184000 -0.113000
2.603000 0.191000 -0.117000
3.320000 -0.009000 -0.164000
3.336000 -0.009000 -0.176000
2.622000 0.194000 -0.154000
2.588000 0.181000 -0.066000
2.590000 0.173000 -0.063000
3.286000 0.042000 -0.287000
3.299000 0.041000 -0.278000
3.304000 0.040000 -0.268000
3.311000 0.038000 -0.258000
3.317000 0.037000 -0.247000
3.345000 0.028000 -0.185000
3.339000 0.027000 -0.174000
3.332000 0.025000 -0.163000
2.592000 0.174000 -0.006000
2.598000 0.166000 -0.006000
2.589000 0.181000 -0.070000
3.335000 0.021000 -0.169000
3.345000 0.023000 -0.181000
3.315000 0.034000 -0.253000
3.310000 0.035000 -0.264000
3.298000 0.037000 -0.273000
3.291000 0.038000 -0.283000
3.280000 0.040000 -0.293000
2.595000 0.178000 -0.010000
2.601000 0.192000 -0.100000
2.597000 0.185000 -0.096000
3.357000 0.004000 -0.185000
3.351000 0.004000 -0.174000
3.332000 0.004000 -0.162000
3.326000 0.004000 -0.151000
2.590000 0.170000 -0.028000
2.593000 0.186000 -0.101000
3.326000 0.000000 -0.161000
3.346000 0.000000 -0.173000
3.358000 0.000000 -0.184000
2.589000 0.177000 -0.033000
2.619000 0.205000 -0.145000
2.611000 0.198000 -0.139000
2.616000 0.191000 -0.134000
3.309000 -0.017000 -0.169000
2.581000 0.172000 -0.052000
3.252000 0.064000 -0.318000
3.255000 0.063000 -0.308000
3.269000 0.061000 -0.299000
3.280000 0.059000 -0.290000
2.611000 0.188000 -0.135000
2.611000 0.195000 -0.140000
3.306000 -0.022000 -0.171000
2.584000 0.171000 -0.055000
2.582000 0.179000 -0.058000
3.275000 0.057000 -0.294000
3.262000 0.059000 -0.303000
3.250000 0.061000 -0.313000
3.249000 0.063000 -0.323000
2.596000 0.179000 -0.081000
3.338000 0.017000 -0.222000
3.337000 0.016000 -0.211000
3.344000 0.015000 -0.201000
3.347000 0.015000 -0.190000
3.344000 0.014000 -0.179000
3.335000 0.013000 -0.168000
3.324000 0.012000 -0.156000
2.589000 0.168000 -0.018000
2.590000 0.179000 -0.085000
2.591000 0.187000 -0.088000
3.328000 0.008000 -0.155000
3.333000 0.008000 -0.166000
3.342000 0.009000 -0.177000
3.349000 0.010000 -0.188000
3.349000 0.011000 -0.199000
3.337000 0.011000 -0.209000
3.336000 0.012000 -0.220000
2.590000 0.173000 -0.022000
2.606000 0.194000 -0.121000
2.608000 0.187000 -0.117000
3.319000 -0.008000 -0.176000
3.319000 -0.007000 -0.166000
2.585000 0.170000 -0.041000
2.599000 0.184000 -0.118000
2.606000 0.191000 -0.122000
3.309000 -0.012000 -0.168000
3.321000 -0.013000 -0.179000
2.590000 0.178000 -0.068000
3.304000 0.036000 -0.276000
3.311000 0.035000 -0.266000
3.313000 0.034000 -0.256000
3.323000 0.032000 -0.246000
3.327000 0.031000 -0.235000
3.333000 0.030000 -0.225000
3.335000 0.029000 -0.214000
3.354000 0.026000 -0.194000
3.342000 0.025000 -0.182000
3.334000 0.023000 -0.171000
3.332000 0.022000 -0.160000
2.590000 0.172000 -0.009000
2.596000 0.164000 -0.008000
2.598000 0.182000 -0.074000
3.336000 0.017000 -0.161000
3.342000 0.019000 -0.172000
3.343000 0.020000 -0.183000
3.351000 0.021000 -0.194000
3.341000 0.024000 -0.215000
3.325000 0.025000 -0.225000
3.325000 0.027000 -0.236000
3.325000 0.028000 -0.247000
3.316000 0.029000 -0.257000
3.305000 0.031000 -0.266000
3.300000 0.032000 -0.277000
2.596000 0.172000 -0.013000
2.599000 0.187000 -0.102000
3.361000 0.001000 -0.182000
3.345000 0.001000 -0.171000
3.328000 0.001000 -0.159000
2.588000 0.175000 -0.032000
2.600000 0.188000 -0.105000
3.324000 -0.002000 -0.154000
3.332000 -0.002000 -0.165000
3.353000 -0.003000 -0.177000
3.364000 -0.003000 -0.188000
2.613000 0.200000 -0.146000
2.616000 0.193000 -0.141000
2.592000 0.179000 -0.066000
2.595000 0.171000 -0.063000
3.290000 0.041000 -0.284000
3.299000 0.040000 -0.274000
3.311000 0.039000 -0.265000
3.317000 0.038000 -0.255000
3.326000 0.036000 -0.245000
3.334000 0.035000 -0.235000
3.349000 0.028000 -0.182000
3.340000 0.026000 -0.170000
3.343000 0.024000 -0.160000
2.627000 0.194000 -0.156000
2.595000 0.172000 -0.006000
2.604000 0.164000 -0.006000
2.591000 0.176000 -0.068000
3.338000 0.020000 -0.165000
3.342000 0.022000 -0.176000
3.345000 0.023000 -0.187000
3.323000 0.031000 -0.239000
3.314000 0.032000 -0.249000
3.313000 0.034000 -0.259000
3.300000 0.036000 -0.269000
3.296000 0.037000 -0.279000
3.290000 0.039000 -0.289000
2.593000 0.166000 -0.010000
2.600000 0.175000 -0.010000
2.586000 0.175000 -0.056000
3.265000 0.059000 -0.316000
3.269000 0.057000 -0.305000
3.282000 0.056000 -0.296000
3.283000 0.054000 -0.286000
2.616000 0.190000 -0.141000
2.615000 0.197000 -0.146000
2.599000 0.175000 0.000000
2.586000 0.175000 -0.059000
3.279000 0.052000 -0.291000
3.269000 0.054000 -0.300000
3.256000 0.056000 -0.309000
3.256000 0.059000 -0.320000
2.597000 0.188000 -0.088000
2.595000 0.180000 -0.084000
3.341000 0.014000 -0.204000
3.350000 0.013000 -0.194000
3.344000 0.013000 -0.183000
3.339000 0.012000 -0.171000
3.332000 0.011000 -0.160000
2.595000 0.170000 -0.020000
2.593000 0.178000 -0.086000
2.592000 0.186000 -0.090000
3.330000 0.007000 -0.154000
3.330000 0.007000 -0.165000
3.343000 0.008000 -0.177000
3.346000 0.008000 -0.188000
3.348000 0.009000 -0.199000
2.593000 0.173000 -0.024000
2.605000 0.194000 -0.122000
2.607000 0.187000 -0.118000
3.315000 -0.009000 -0.176000
3.314000 -0.008000 -0.165000
2.585000 0.178000 -0.044000
2.589000 0.170000 -0.042000
2.606000 0.185000 -0.119000
2.607000 0.192000 -0.124000
3.318000 -0.012000 -0.159000
3.316000 -0.013000 -0.169000
3.317000 -0.014000 -0.180000
2.589000 0.172000 -0.046000
2.593000 0.183000 -0.071000
2.591000 0.175000 -0.068000
3.305000 0.035000 -0.272000
3.313000 0.034000 -0.262000
3.315000 0.032000 -0.251000
3.319000 0.031000 -0.241000
3.326000 0.030000 -0.231000
3.336000 0.029000 -0.221000
3.336000 0.028000 -0.210000
3.353000 0.025000 -0.189000
3.339000 0.024000 -0.178000
3.337000 0.022000 -0.167000
3.328000 0.021000 -0.156000
2.598000 0.170000 -0.009000
2.592000 0.177000 -0.072000
2.592000 0.185000 -0.075000
3.334000 0.018000 -0.167000
3.337000 0.019000 -0.178000
3.354000 0.020000 -0.189000
3.340000 0.023000 -0.210000
3.333000 0.024000 -0.221000
3.329000 0.026000 -0.231000
3.326000 0.027000 -0.241000
3.318000 0.028000 -0.252000
3.309000 0.030000 -0.262000
3.305000 0.031000 -0.272000
2.597000 0.168000 -0.013000
2.595000 0.176000 -0.013000
2.603000 0.192000 -0.105000
2.600000 0.184000 -0.101000
3.364000 0.001000 -0.187000
3.345000 0.001000 -0.175000
3.332000 0.001000 -0.164000
3.326000 0.001000 -0.153000
2.584000 0.170000 -0.031000
2.601000 0.185000 -0.105000
3.333000 -0.003000 -0.162000
3.347000 -0.003000 -0.174000
3.360000 -0.003000 -0.185000
2.582000 0.176000 -0.036000
2.619000 0.202000 -0.148000
2.620000 0.195000 -0.143000
2.584000 0.176000 -0.057000
3.262000 0.058000 -0.316000
3.269000 0.056000 -0.307000
3.280000 0.055000 -0.297000
3.286000 0.053000 -0.287000
3.295000 0.051000 -0.277000
2.609000 0.195000 -0.145000
2.586000 0.174000 -0.060000
3.286000 0.048000 -0.280000
3.282000 0.050000 -0.290000
3.277000 0.052000 -0.300000
3.264000 0.054000 -0.309000
3.251000 0.056000 -0.319000
2.601000 0.178000 -0.003000
2.593000 0.188000 -0.089000
2.597000 0.181000 -0.086000
3.350000 0.012000 -0.197000
3.346000 0.011000 -0.186000
3.343000 0.011000 -0.175000
3.327000 0.010000 -0.163000
3.325000 0.010000 -0.153000
2.588000 0.172000 -0.022000
2.591000 0.182000 -0.090000
3.328000 0.005000 -0.160000
3.339000 0.006000 -0.171000
3.351000 0.007000 -0.182000
3.349000 0.007000 -0.193000
2.610000 0.196000 -0.126000
2.610000 0.188000 -0.121000
3.306000 -0.011000 -0.180000
3.311000 -0.010000 -0.170000
3.313000 -0.009000 -0.159000
2.586000 0.173000 -0.045000
3.252000 0.077000 -0.314000
2.611000 0.187000 -0.124000
2.610000 0.194000 -0.128000
3.319000 -0.014000 -0.163000
3.314000 -0.015000 -0.173000
2.582000 0.175000 -0.049000
2.586000 0.180000 -0.072000
3.311000 0.031000 -0.261000
3.318000 0.030000 -0.251000
3.324000 0.029000 -0.240000
3.329000 0.028000 -0.230000
3.337000 0.026000 -0.220000
3.338000 0.025000 -0.209000
3.342000 0.024000 -0.199000
3.351000 0.023000 -0.188000
3.345000 0.022000 -0.177000
3.332000 0.020000 -0.166000
3.328000 0.019000 -0.155000
2.592000 0.176000 -0.011000
2.587000 0.167000 -0.011000
2.592000 0.177000 -0.074000
2.589000 0.184000 -0.077000
3.326000 0.015000 -0.156000
3.337000 0.016000 -0.167000
3.346000 0.017000 -0.178000
3.348000 0.018000 -0.189000
3.344000 0.020000 -0.200000
3.333000 0.021000 -0.210000
3.335000 0.022000 -0.221000
3.327000 0.023000 -0.231000
3.324000 0.025000 -0.241000
3.320000 0.026000 -0.252000
3.311000 0.027000 -0.262000
3.300000 0.028000 -0.271000
2.599000 0.167000 -0.014000
2.594000 0.175000 -0.015000
2.603000 0.192000 -0.107000
2.604000 0.185000 -0.103000
3.364000 0.000000 -0.190000
3.353000 0.000000 -0.178000
3.332000 0.000000 -0.166000
3.324000 0.000000 -0.155000
2.587000 0.173000 -0.034000
2.610000 0.182000 -0.105000
2.603000 0.189000 -0.109000
3.323000 -0.004000 -0.157000
3.334000 -0.004000 -0.169000
3.357000 -0.005000 -0.181000
2.585000 0.172000 -0.037000
2.604000 0.188000 -0.098000
2.602000 0.180000 -0.094000
3.363000 0.004000 -0.190000
3.358000 0.004000 -0.178000
3.336000 0.004000 -0.166000
3.327000 0.004000 -0.155000
2.589000 0.173000 -0.029000
2.600000 0.178000 -0.097000
2.601000 0.185000 -0.101000
3.332000 0.000000 -0.161000
3.349000 0.000000 -0.172000
3.361000 0.000000 -0.184000
2.583000 0.176000 -0.033000
2.621000 0.197000 -0.147000
2.587000 0.182000 -0.061000
2.588000 0.174000 -0.058000
3.273000 0.053000 -0.304000
3.281000 0.051000 -0.294000
3.291000 0.050000 -0.285000
3.296000 0.048000 -0.274000
2.613000 0.196000 -0.149000
2.593000 0.173000 -0.001000
2.588000 0.176000 -0.062000
3.292000 0.045000 -0.274000
3.288000 0.046000 -0.284000
3.279000 0.048000 -0.294000
3.272000 0.050000 -0.304000
3.260000 0.052000 -0.313000
2.594000 0.185000 -0.090000
3.348000 0.010000 -0.191000
3.354000 0.009000 -0.180000
3.335000 0.009000 -0.169000
3.326000 0.008000 -0.158000
2.591000 0.168000 -0.023000
2.603000 0.186000 -0.094000
3.326000 0.004000 -0.156000
3.335000 0.004000 -0.167000
3.346000 0.004000 -0.179000
3.346000 0.005000 -0.190000
2.591000 0.174000 -0.027000
2.608000 0.197000 -0.131000
2.607000 0.191000 -0.126000
3.311000 -0.013000 -0.174000
3.320000 -0.012000 -0.164000
2.581000 0.175000 -0.048000
3.246000 0.073000 -0.318000
3.259000 0.071000 -0.309000
2.608000 0.190000 -0.129000
2.607000 0.197000 -0.133000
3.320000 -0.016000 -0.160000
3.308000 -0.017000 -0.170000
3.300000 -0.018000 -0.181000
2.584000 0.172000 -0.050000
2.579000 0.179000 -0.052000
3.259000 0.070000 -0.310000
3.249000 0.072000 -0.320000
2.586000 0.180000 -0.075000
3.322000 0.026000 -0.253000
3.327000 0.025000 -0.242000
3.334000 0.024000 -0.232000
3.337000 0.023000 -0.222000
3.336000 0.022000 -0.211000
3.342000 0.021000 -0.200000
3.347000 0.020000 -0.190000
3.343000 0.019000 -0.179000
3.332000 0.018000 -0.167000
3.332000 0.017000 -0.156000
2.591000 0.176000 -0.014000
2.592000 0.168000 -0.013000
2.594000 0.183000 -0.080000
3.329000 0.012000 -0.156000
3.334000 0.013000 -0.167000
3.345000 0.014000 -0.178000
3.347000 0.015000 -0.189000
3.343000 0.016000 -0.200000
3.339000 0.017000 -0.211000
3.337000 0.018000 -0.221000
3.327000 0.020000 -0.231000
3.322000 0.021000 -0.242000
3.319000 0.022000 -0.252000
2.592000 0.167000 -0.017000
2.589000 0.175000 -0.018000
2.601000 0.188000 -0.110000
3.364000 -0.003000 -0.188000
3.342000 -0.003000 -0.176000
3.322000 -0.002000 -0.164000
2.587000 0.169000 -0.036000
2.601000 0.189000 -0.114000
3.325000 -0.007000 -0.161000
3.332000 -0.008000 -0.172000
3.359000 -0.008000 -0.184000
2.583000 0.175000 -0.041000
2.625000 0.198000 -0.153000
2.590000 0.183000 -0.065000
2.590000 0.175000 -0.062000
3.284000 0.047000 -0.298000
3.290000 0.045000 -0.288000
3.294000 0.044000 -0.278000
3.300000 0.042000 -0.268000
3.310000 0.041000 -0.258000
3.340000 0.029000 -0.175000
3.344000 0.027000 -0.164000
2.594000 0.175000 -0.004000
2.601000 0.167000 -0.004000
2.591000 0.182000 -0.068000
3.332000 0.023000 -0.171000
3.301000 0.038000 -0.264000
3.297000 0.040000 -0.275000
3.290000 0.041000 -0.285000
3.285000 0.043000 -0.295000
2.592000 0.180000 -0.008000
2.604000 0.191000 -0.097000
2.604000 0.183000 -0.093000
3.355000 0.006000 -0.191000
3.355000 0.006000 -0.180000
3.338000 0.006000 -0.169000
3.323000 0.005000 -0.157000
2.589000 0.175000 -0.027000
2.595000 0.185000 -0.098000
3.330000 0.001000 -0.159000
3.340000 0.001000 -0.171000
3.353000 0.001000 -0.182000
3.356000 0.001000 -0.193000
2.588000 0.176000 -0.031000
2.618000 0.199000 -0.138000
2.620000 0.192000 -0.133000
3.310000 -0.017000 -0.178000
3.319000 -0.016000 -0.168000
2.586000 0.178000 -0.053000
2.581000 0.170000 -0.050000
3.247000 0.067000 -0.323000
3.250000 0.065000 -0.313000
3.261000 0.063000 -0.304000
3.277000 0.062000 -0.295000
2.613000 0.192000 -0.137000
2.613000 0.199000 -0.141000
3.313000 -0.021000 -0.167000
3.303000 -0.022000 -0.177000
2.584000 0.177000 -0.057000
3.271000 0.060000 -0.303000
3.255000 0.062000 -0.311000
3.245000 0.064000 -0.321000
2.590000 0.187000 -0.084000
2.595000 0.179000 -0.081000
3.339000 0.017000 -0.221000
3.343000 0.016000 -0.210000
3.349000 0.016000 -0.200000
3.354000 0.015000 -0.189000
3.346000 0.014000 -0.178000
3.327000 0.013000 -0.166000
3.326000 0.012000 -0.156000
2.595000 0.167000 -0.018000
2.594000 0.182000 -0.086000
3.329000 0.008000 -0.160000
3.333000 0.009000 -0.171000
3.342000 0.009000 -0.183000
3.349000 0.010000 -0.194000
3.345000 0.011000 -0.204000
3.331000 0.011000 -0.214000
3.329000 0.012000 -0.225000
2.590000 0.178000 -0.023000
2.607000 0.197000 -0.123000
2.603000 0.190000 -0.119000
3.313000 -0.009000 -0.179000
3.313000 -0.008000 -0.168000
2.582000 0.172000 -0.042000
2.611000 0.190000 -0.123000
2.611000 0.198000 -0.127000
3.312000 -0.013000 -0.167000
3.314000 -0.013000 -0.178000
2.591000 0.171000 -0.046000
2.587000 0.179000 -0.048000
2.611000 0.197000 -0.139000
2.614000 0.191000 -0.134000
3.304000 -0.018000 -0.179000
3.311000 -0.017000 -0.169000
2.586000 0.179000 -0.054000
2.588000 0.171000 -0.052000
3.258000 0.063000 -0.318000
3.256000 0.061000 -0.307000
3.269000 0.060000 -0.298000
3.284000 0.058000 -0.289000
2.613000 0.189000 -0.136000
2.614000 0.196000 -0.141000
3.311000 -0.022000 -0.173000
2.581000 0.172000 -0.056000
2.586000 0.181000 -0.059000
3.274000 0.057000 -0.296000
3.261000 0.059000 -0.305000
3.251000 0.061000 -0.315000
3.252000 0.063000 -0.325000
2.594000 0.183000 -0.072000
2.592000 0.175000 -0.069000
3.301000 0.034000 -0.273000
3.309000 0.033000 -0.263000
3.314000 0.032000 -0.253000
3.322000 0.031000 -0.243000
3.327000 0.030000 -0.232000
3.331000 0.028000 -0.222000
3.342000 0.027000 -0.212000
3.341000 0.026000 -0.201000
3.354000 0.025000 -0.191000
3.344000 0.023000 -0.180000
3.333000 0.022000 -0.168000
3.323000 0.021000 -0.157000
2.592000 0.178000 -0.010000
2.595000 0.169000 -0.010000
2.588000 0.176000 -0.073000
2.591000 0.184000 -0.076000
3.337000 0.017000 -0.166000
3.344000 0.018000 -0.177000
3.344000 0.019000 -0.188000
3.341000 0.021000 -0.198000
3.335000 0.022000 -0.209000
3.335000 0.023000 -0.219000
3.327000 0.024000 -0.230000
3.326000 0.026000 -0.240000
3.320000 0.027000 -0.251000
3.310000 0.028000 -0.260000
3.306000 0.030000 -0.271000
2.597000 0.175000 -0.014000
2.601000 0.191000 -0.106000
2.605000 0.184000 -0.102000
3.364000 0.000000 -0.189000
3.358000 0.000000 -0.177000
3.332000 0.000000 -0.165000
3.325000 0.000000 -0.154000
2.586000 0.170000 -0.032000
2.604000 0.185000 -0.106000
2.597000 0.192000 -0.110000
3.324000 -0.004000 -0.161000
3.346000 -0.004000 -0.173000
3.356000 -0.004000 -0.184000
2.587000 0.176000 -0.037000
2.624000 0.201000 -0.149000
2.619000 0.194000 -0.144000
2.588000 0.176000 -0.058000
3.272000 0.054000 -0.308000
3.282000 0.053000 -0.298000
3.289000 0.051000 -0.288000
3.292000 0.050000 -0.278000
2.617000 0.194000 -0.147000
2.598000 0.176000 -0.001000
2.602000 0.168000 0.000000
2.584000 0.174000 -0.061000
2.590000 0.182000 -0.064000
3.296000 0.047000 -0.283000
3.288000 0.049000 -0.292000
3.275000 0.051000 -0.302000
3.265000 0.052000 -0.311000
2.604000 0.171000 -0.004000
2.599000 0.179000 -0.004000
2.595000 0.186000 -0.090000
2.602000 0.179000 -0.086000
3.349000 0.010000 -0.194000
3.354000 0.010000 -0.183000
3.343000 0.009000 -0.172000
3.330000 0.009000 -0.160000
2.593000 0.170000 -0.023000
2.597000 0.177000 -0.089000
2.599000 0.185000 -0.093000
3.326000 0.004000 -0.153000
3.334000 0.004000 -0.164000
3.349000 0.005000 -0.176000
3.350000 0.005000 -0.187000
2.591000 0.172000 -0.027000
2.612000 0.199000 -0.131000
2.611000 0.192000 -0.126000
3.312000 -0.012000 -0.176000
3.313000 -0.012000 -0.165000
2.582000 0.169000 -0.046000
3.254000 0.072000 -0.310000
2.610000 0.189000 -0.128000
2.612000 0.196000 -0.132000
3.313000 -0.016000 -0.168000
3.308000 -0.017000 -0.178000
2.590000 0.179000 -0.052000
2.594000 0.185000 -0.084000
2.600000 0.177000 -0.081000
3.345000 0.016000 -0.221000
3.350000 0.016000 -0.211000
3.348000 0.015000 -0.200000
3.354000 0.014000 -0.189000
3.346000 0.013000 -0.178000
3.335000 0.013000 -0.167000
3.334000 0.012000 -0.156000
2.593000 0.166000 -0.019000
2.591000 0.181000 -0.087000
3.331000 0.007000 -0.157000
3.338000 0.008000 -0.168000
3.354000 0.008000 -0.180000
3.350000 0.009000 -0.190000
3.351000 0.010000 -0.201000
3.341000 0.010000 -0.211000
2.597000 0.175000 -0.024000
3.364000 0.000000 -0.187000
3.349000 0.000000 -0.176000
3.332000 0.000000 -0.164000
3.322000 0.000000 -0.153000
2.582000 0.170000 -0.032000
2.601000 0.185000 -0.106000
3.328000 -0.004000 -0.162000
3.350000 -0.004000 -0.174000
3.365000 -0.004000 -0.186000
2.587000 0.176000 -0.037000
2.624000 0.201000 -0.149000
2.618000 0.194000 -0.143000
2.608000 0.194000 -0.122000
2.608000 0.186000 -0.117000
3.313000 -0.009000 -0.175000
3.319000 -0.008000 -0.164000
2.589000 0.169000 -0.042000
2.612000 0.184000 -0.119000
2.608000 0.191000 -0.124000
3.314000 -0.013000 -0.167000
3.313000 -0.014000 -0.178000
2.584000 0.171000 -0.046000
2.597000 0.185000 -0.073000
2.588000 0.177000 -0.069000
3.311000 0.033000 -0.266000
3.317000 0.032000 -0.256000
3.322000 0.031000 -0.246000
3.326000 0.030000 -0.235000
3.337000 0.028000 -0.225000
3.339000 0.027000 -0.215000
3.337000 0.026000 -0.204000
3.350000 0.025000 -0.194000
3.346000 0.024000 -0.183000
3.340000 0.022000 -0.172000
3.339000 0.021000 -0.161000
2.590000 0.172000 -0.010000
2.598000 0.164000 -0.009000
2.590000 0.181000 -0.075000
3.327000 0.016000 -0.161000
3.334000 0.017000 -0.172000
3.343000 0.019000 -0.184000
3.349000 0.020000 -0.195000
3.341000 0.021000 -0.205000
3.339000 0.022000 -0.216000
3.334000 0.024000 -0.226000
3.327000 0.025000 -0.236000
3.317000 0.026000 -0.246000
3.315000 0.027000 -0.257000
3.309000 0.029000 -0.267000
2.594000 0.172000 -0.014000
2.599000 0.180000 -0.014000
2.607000 0.188000 -0.104000
3.364000 0.000000 -0.182000
3.339000 0.000000 -0.170000
3.326000 0.000000 -0.158000
2.590000 0.175000 -0.034000
2.602000 0.187000 -0.108000
3.331000 -0.004000 -0.165000
3.354000 -0.005000 -0.177000
3.364000 -0.005000 -0.188000
2.588000 0.170000 -0.037000
2.622000 0.198000 -0.148000
2.591000 0.175000 -0.058000
3.269000 0.053000 -0.306000
3.284000 0.052000 -0.296000
3.288000 0.050000 -0.286000
3.292000 0.049000 -0.276000
2.620000 0.195000 -0.148000
2.604000 0.167000 -0.001000
2.588000 0.174000 -0.062000
3.299000 0.044000 -0.273000
3.288000 0.046000 -0.282000
3.284000 0.048000 -0.292000
3.276000 0.050000 -0.302000
3.259000 0.051000 -0.311000
2.602000 0.170000 -0.005000
2.597000 0.180000 -0.087000
3.356000 0.010000 -0.196000
3.354000 0.009000 -0.185000
3.345000 0.009000 -0.174000
3.331000 0.008000 -0.162000
3.330000 0.008000 -0.151000
2.589000 0.171000 -0.024000
2.595000 0.182000 -0.093000
3.335000 0.003000 -0.162000
3.349000 0.004000 -0.174000
3.352000 0.004000 -0.185000
3.355000 0.005000 -0.196000
2.591000 0.170000 -0.027000
2.615000 0.200000 -0.134000
2.608000 0.193000 -0.128000
3.304000 -0.014000 -0.179000
3.315000 -0.013000 -0.169000
2.590000 0.181000 -0.050000
2.584000 0.173000 -0.048000
3.246000 0.072000 -0.316000
3.254000 0.070000 -0.307000
2.612000 0.191000 -0.131000
2.611000 0.198000 -0.135000
3.317000 -0.017000 -0.162000
3.311000 -0.018000 -0.172000
2.586000 0.173000 -0.052000
2.589000 0.181000 -0.054000
3.254000 0.068000 -0.312000
2.592000 0.180000 -0.076000
3.318000 0.025000 -0.253000
3.327000 0.024000 -0.243000
3.336000 0.023000 -0.233000
3.338000 0.022000 -0.222000
3.341000 0.021000 -0.211000
3.346000 0.020000 -0.201000
3.347000 0.019000 -0.190000
3.343000 0.018000 -0.179000
3.339000 0.017000 -0.168000
3.327000 0.016000 -0.157000
2.591000 0.176000 -0.015000
2.594000 0.168000 -0.014000
2.590000 0.181000 -0.080000
3.337000 0.013000 -0.164000
3.343000 0.013000 -0.175000
3.344000 0.014000 -0.186000
3.347000 0.015000 -0.197000
3.345000 0.016000 -0.207000
3.336000 0.017000 -0.218000
3.337000 0.018000 -0.229000
3.329000 0.020000 -0.239000
3.322000 0.021000 -0.249000
2.589000 0.173000 -0.018000
2.604000 0.191000 -0.112000
2.605000 0.184000 -0.108000
3.347000 -0.004000 -0.179000
3.326000 -0.003000 -0.168000
2.585000 0.172000 -0.037000
2.606000 0.186000 -0.113000
2.603000 0.193000 -0.117000
3.323000 -0.008000 -0.166000
3.351000 -0.008000 -0.179000
2.584000 0.171000 -0.041000
2.630000 0.196000 -0.153000
2.589000 0.174000 -0.062000
3.293000 0.045000 -0.288000
3.298000 0.043000 -0.278000
3.306000 0.042000 -0.268000
3.311000 0.041000 -0.257000
3.344000 0.030000 -0.185000
3.338000 0.028000 -0.174000
3.339000 0.027000 -0.163000
2.626000 0.193000 -0.153000
2.602000 0.166000 -0.004000
2.589000 0.174000 -0.065000
2.587000 0.182000 -0.068000
3.340000 0.023000 -0.169000
3.342000 0.024000 -0.180000
