# .PCD v0.7 - Point Cloud Data file format
VERSION 0.7
FIELDS x y z
SIZE 4 4 4
TYPE F F F
COUNT 1 1 1
WIDTH 1630
HEIGHT 1
VIEWPOINT 0 0 0 1 0 0 0
POINTS 1630
DATA ascii
2.471000 -0.047000 -0.382000
2.469000 -0.048000 -0.390000
2.406000 0.134000 -0.253000
2.427000 0.132000 -0.248000
2.422000 0.125000 -0.234000
2.414000 0.121000 -0.226000
2.381000 0.112000 -0.209000
2.386000 0.095000 -0.175000
2.387000 0.091000 -0.168000
2.384000 0.044000 -0.252000
2.388000 0.046000 -0.260000
2.403000 0.048000 -0.269000
2.415000 0.050000 -0.278000
2.438000 0.054000 -0.297000
2.392000 0.056000 -0.306000
2.391000 0.058000 -0.314000
2.378000 0.170000 -0.163000
2.390000 0.166000 -0.159000
2.395000 0.160000 -0.153000
2.393000 0.155000 -0.148000
2.407000 0.150000 -0.143000
2.486000 -0.152000 -0.505000
2.478000 -0.149000 -0.495000
2.481000 -0.146000 -0.488000
2.491000 -0.144000 -0.482000
2.483000 -0.140000 -0.473000
2.488000 -0.138000 -0.466000
2.511000 -0.136000 -0.463000
2.383000 0.090000 -0.172000
2.384000 0.094000 -0.179000
2.379000 0.113000 -0.213000
2.392000 0.117000 -0.220000
2.406000 0.121000 -0.229000
2.416000 0.134000 -0.250000
2.410000 0.137000 -0.256000
2.451000 0.014000 -0.341000
2.462000 0.014000 -0.334000
2.391000 0.152000 -0.148000
2.391000 0.158000 -0.153000
2.388000 0.163000 -0.159000
2.382000 0.168000 -0.163000
2.387000 0.174000 -0.169000
2.489000 -0.108000 -0.433000
2.477000 -0.109000 -0.439000
2.478000 -0.111000 -0.447000
2.494000 -0.128000 -0.540000
2.481000 -0.129000 -0.545000
2.489000 -0.165000 -1.217000
2.483000 -0.164000 -1.222000
2.488000 -0.163000 -1.233000
2.489000 -0.163000 -1.242000
2.495000 -0.162000 -1.253000
2.500000 -0.161000 -1.264000
2.502000 -0.161000 -1.273000
2.417000 0.098000 -0.261000
2.430000 0.096000 -0.255000
2.449000 0.018000 -0.327000
2.444000 0.018000 -0.335000
2.395000 0.149000 -0.184000
2.411000 0.145000 -0.179000
2.416000 0.140000 -0.173000
2.419000 0.136000 -0.167000
2.420000 0.131000 -0.161000
2.419000 0.126000 -0.155000
2.413000 0.121000 -0.148000
2.406000 0.116000 -0.142000
2.407000 0.111000 -0.136000
2.413000 0.106000 -0.130000
2.406000 0.089000 -0.237000
2.426000 0.096000 -0.253000
2.418000 0.099000 -0.260000
2.408000 0.101000 -0.266000
2.494000 -0.096000 -0.727000
2.496000 -0.094000 -0.719000
2.489000 -0.092000 -0.709000
2.490000 -0.090000 -0.701000
2.495000 -0.089000 -0.694000
2.468000 -0.035000 -0.388000
2.455000 -0.034000 -0.378000
2.455000 -0.033000 -0.369000
2.462000 -0.032000 -0.363000
2.414000 0.105000 -0.133000
2.409000 0.109000 -0.139000
2.407000 0.114000 -0.145000
2.411000 0.119000 -0.151000
2.417000 0.125000 -0.158000
2.413000 0.130000 -0.164000
2.420000 0.135000 -0.170000
2.415000 0.140000 -0.176000
2.411000 0.145000 -0.182000
2.404000 0.149000 -0.187000
2.392000 0.073000 -0.313000
2.403000 0.071000 -0.306000
2.409000 0.070000 -0.299000
2.440000 0.068000 -0.288000
2.432000 0.066000 -0.279000
2.420000 0.064000 -0.270000
2.404000 0.062000 -0.260000
2.394000 0.060000 -0.252000
2.456000 -0.024000 -0.355000
2.448000 -0.024000 -0.362000
2.452000 -0.025000 -0.370000
2.402000 0.150000 -0.247000
2.414000 0.147000 -0.242000
2.414000 0.131000 -0.215000
2.405000 0.127000 -0.207000
2.397000 0.123000 -0.200000
2.391000 0.118000 -0.192000
2.383000 0.114000 -0.185000
2.384000 0.110000 -0.178000
2.387000 0.106000 -0.172000
2.392000 0.058000 -0.247000
2.401000 0.061000 -0.256000
2.414000 0.063000 -0.265000
2.436000 0.068000 -0.282000
2.432000 0.070000 -0.290000
2.391000 0.183000 -0.156000
2.398000 0.177000 -0.151000
2.388000 0.171000 -0.145000
2.374000 0.164000 -0.139000
2.378000 0.158000 -0.134000
2.480000 -0.130000 -0.536000
2.491000 -0.128000 -0.531000
2.481000 -0.101000 -0.442000
2.477000 -0.099000 -0.434000
2.481000 -0.097000 -0.426000
2.394000 0.104000 -0.173000
2.393000 0.108000 -0.179000
2.387000 0.112000 -0.185000
2.391000 0.116000 -0.192000
2.395000 0.121000 -0.199000
2.409000 0.126000 -0.207000
2.416000 0.130000 -0.214000
2.444000 0.033000 -0.331000
2.439000 0.032000 -0.322000
2.423000 0.031000 -0.312000
2.374000 0.159000 -0.138000
2.374000 0.165000 -0.142000
2.387000 0.171000 -0.148000
2.391000 0.178000 -0.153000
2.480000 -0.079000 -0.405000
2.472000 -0.079000 -0.412000
2.478000 -0.081000 -0.421000
2.473000 -0.105000 -0.632000
2.478000 -0.106000 -0.642000
2.485000 -0.107000 -0.652000
2.490000 -0.108000 -0.662000
2.493000 -0.109000 -0.671000
2.490000 -0.109000 -0.678000
2.492000 -0.110000 -0.687000
2.636000 -0.123000 -1.040000
2.601000 -0.121000 -1.035000
2.567000 -0.119000 -1.030000
2.565000 -0.118000 -1.038000
2.577000 -0.119000 -1.052000
2.600000 -0.119000 -1.070000
2.665000 -0.122000 -1.105000
2.759000 -0.125000 -1.154000
2.407000 0.115000 -0.261000
2.419000 0.113000 -0.255000
2.431000 0.111000 -0.249000
2.430000 0.107000 -0.241000
2.409000 0.104000 -0.232000
2.401000 0.100000 -0.224000
2.389000 0.097000 -0.216000
2.377000 0.093000 -0.208000
2.417000 0.033000 -0.307000
2.431000 0.035000 -0.317000
2.386000 0.157000 -0.174000
2.392000 0.152000 -0.168000
2.413000 0.143000 -0.158000
2.416000 0.138000 -0.152000
2.410000 0.133000 -0.146000
2.408000 0.128000 -0.140000
2.412000 0.123000 -0.134000
2.411000 0.117000 -0.128000
2.413000 0.112000 -0.122000
2.377000 0.092000 -0.209000
2.380000 0.096000 -0.217000
2.398000 0.100000 -0.225000
2.411000 0.104000 -0.234000
2.421000 0.107000 -0.242000
2.433000 0.111000 -0.250000
2.411000 0.114000 -0.255000
2.408000 0.117000 -0.262000
2.598000 -0.191000 -1.260000
2.711000 -0.165000 -1.220000
2.597000 -0.148000 -1.136000
2.647000 -0.145000 -1.140000
2.606000 -0.138000 -1.106000
2.601000 -0.135000 -1.095000
2.588000 -0.132000 -1.081000
2.583000 -0.129000 -1.071000
2.590000 -0.127000 -1.065000
2.585000 -0.124000 -1.054000
2.577000 -0.121000 -1.043000
2.571000 -0.119000 -1.032000
2.575000 -0.117000 -1.025000
2.572000 -0.114000 -1.015000
2.557000 -0.111000 -1.001000
2.525000 -0.108000 -0.980000
2.567000 -0.107000 -0.988000
2.587000 -0.106000 -0.987000
2.591000 -0.104000 -0.980000
2.604000 -0.102000 -0.977000
2.611000 -0.100000 -0.971000
2.634000 -0.099000 -0.970000
2.659000 -0.098000 -0.971000
2.716000 -0.096000 -0.973000
2.799000 -0.097000 -0.994000
2.875000 -0.097000 -1.011000
2.456000 -0.012000 -0.369000
2.447000 -0.011000 -0.359000
2.449000 -0.011000 -0.352000
2.412000 0.113000 -0.129000
2.414000 0.119000 -0.134000
2.411000 0.124000 -0.140000
2.420000 0.130000 -0.146000
2.424000 0.135000 -0.152000
2.423000 0.141000 -0.158000
2.419000 0.146000 -0.164000
2.399000 0.150000 -0.168000
2.379000 0.154000 -0.172000
2.392000 0.160000 -0.179000
2.487000 -0.151000 -0.469000
2.477000 -0.152000 -0.475000
2.474000 -0.154000 -0.482000
2.476000 -0.157000 -0.491000
2.434000 0.083000 -0.280000
2.435000 0.081000 -0.273000
2.405000 0.076000 -0.254000
2.406000 0.074000 -0.247000
2.459000 -0.005000 -0.350000
2.458000 -0.004000 -0.358000
2.416000 0.142000 -0.205000
2.420000 0.138000 -0.199000
2.410000 0.133000 -0.191000
2.405000 0.128000 -0.185000
2.419000 0.125000 -0.179000
2.427000 0.121000 -0.173000
2.426000 0.116000 -0.166000
2.438000 0.079000 -0.266000
2.435000 0.082000 -0.273000
2.385000 0.188000 -0.143000
2.391000 0.182000 -0.138000
2.389000 0.176000 -0.134000
2.378000 0.169000 -0.128000
2.375000 0.163000 -0.123000
2.474000 -0.069000 -0.412000
2.467000 -0.067000 -0.402000
2.422000 0.116000 -0.171000
2.426000 0.121000 -0.177000
2.420000 0.125000 -0.183000
2.412000 0.129000 -0.189000
2.418000 0.134000 -0.196000
2.418000 0.139000 -0.202000
2.412000 0.049000 -0.307000
2.430000 0.048000 -0.302000
2.414000 0.045000 -0.277000
2.394000 0.043000 -0.266000
2.384000 0.042000 -0.258000
2.387000 0.041000 -0.250000
2.400000 0.181000 -0.139000
2.390000 0.187000 -0.143000
2.471000 -0.053000 -0.383000
2.468000 -0.053000 -0.391000
2.469000 -0.054000 -0.399000
2.414000 0.131000 -0.255000
2.431000 0.128000 -0.249000
2.420000 0.121000 -0.234000
2.418000 0.117000 -0.227000
2.379000 0.109000 -0.209000
2.379000 0.042000 -0.254000
2.388000 0.043000 -0.262000
2.406000 0.045000 -0.272000
2.421000 0.047000 -0.281000
2.437000 0.050000 -0.299000
2.395000 0.053000 -0.309000
2.382000 0.168000 -0.164000
2.390000 0.163000 -0.159000
2.399000 0.158000 -0.154000
2.402000 0.153000 -0.149000
2.475000 -0.153000 -0.492000
2.477000 -0.151000 -0.485000
2.479000 -0.148000 -0.477000
2.483000 -0.145000 -0.470000
2.371000 0.088000 -0.173000
2.375000 0.107000 -0.208000
2.373000 0.110000 -0.214000
2.408000 0.120000 -0.231000
2.414000 0.132000 -0.252000
2.457000 0.010000 -0.349000
2.459000 0.010000 -0.341000
2.401000 0.151000 -0.150000
2.395000 0.156000 -0.155000
2.387000 0.162000 -0.160000
2.377000 0.166000 -0.165000
2.378000 0.172000 -0.170000
2.481000 -0.114000 -0.439000
2.480000 -0.116000 -0.447000
2.481000 -0.118000 -0.455000
2.492000 -0.132000 -0.530000
2.481000 -0.133000 -0.536000
2.647000 -0.193000 -1.231000
2.657000 -0.193000 -1.244000
2.671000 -0.194000 -1.260000
2.533000 -0.180000 -1.246000
2.496000 -0.177000 -1.236000
2.485000 -0.176000 -1.239000
2.484000 -0.175000 -1.246000
2.486000 -0.174000 -1.255000
2.496000 -0.174000 -1.269000
2.494000 -0.173000 -1.276000
2.416000 0.095000 -0.262000
2.434000 0.094000 -0.256000
2.460000 0.014000 -0.329000
2.446000 0.015000 -0.335000
2.403000 0.147000 -0.186000
2.411000 0.143000 -0.181000
2.417000 0.138000 -0.175000
2.417000 0.134000 -0.168000
2.420000 0.129000 -0.162000
2.422000 0.124000 -0.156000
2.411000 0.119000 -0.149000
2.405000 0.114000 -0.143000
2.406000 0.109000 -0.137000
2.416000 0.105000 -0.131000
2.425000 0.096000 -0.261000
2.413000 0.098000 -0.267000
2.503000 -0.104000 -0.730000
2.495000 -0.102000 -0.720000
2.493000 -0.100000 -0.711000
2.490000 -0.098000 -0.702000
2.492000 -0.096000 -0.695000
2.490000 -0.094000 -0.686000
2.494000 -0.092000 -0.679000
2.472000 -0.039000 -0.390000
2.460000 -0.038000 -0.380000
2.457000 -0.037000 -0.372000
2.470000 -0.036000 -0.366000
2.399000 0.106000 -0.137000
2.402000 0.111000 -0.144000
2.410000 0.116000 -0.150000
2.416000 0.122000 -0.157000
2.422000 0.127000 -0.163000
2.420000 0.132000 -0.169000
2.420000 0.137000 -0.175000
2.418000 0.142000 -0.181000
2.404000 0.146000 -0.186000
2.405000 0.151000 -0.193000
2.395000 0.069000 -0.309000
2.396000 0.067000 -0.301000
2.437000 0.065000 -0.291000
2.429000 0.064000 -0.282000
2.420000 0.062000 -0.273000
2.407000 0.060000 -0.264000
2.392000 0.058000 -0.255000
2.397000 0.057000 -0.247000
2.454000 -0.028000 -0.359000
2.451000 -0.028000 -0.367000
2.461000 -0.028000 -0.376000
2.407000 0.146000 -0.245000
2.407000 0.131000 -0.218000
2.406000 0.127000 -0.211000
2.407000 0.123000 -0.204000
2.402000 0.119000 -0.197000
2.392000 0.114000 -0.189000
2.383000 0.110000 -0.182000
2.384000 0.106000 -0.175000
2.381000 0.102000 -0.168000
2.397000 0.057000 -0.251000
2.407000 0.060000 -0.260000
2.417000 0.062000 -0.269000
2.430000 0.066000 -0.286000
2.385000 0.178000 -0.154000
2.392000 0.173000 -0.150000
2.384000 0.167000 -0.144000
2.376000 0.160000 -0.138000
2.390000 0.155000 -0.134000
2.480000 -0.133000 -0.534000
2.487000 -0.131000 -0.527000
2.481000 -0.106000 -0.448000
2.478000 -0.104000 -0.439000
2.477000 -0.101000 -0.431000
2.392000 0.103000 -0.175000
2.384000 0.107000 -0.181000
2.383000 0.111000 -0.187000
2.391000 0.116000 -0.195000
2.402000 0.120000 -0.202000
2.416000 0.125000 -0.210000
2.419000 0.130000 -0.217000
2.447000 0.031000 -0.331000
2.438000 0.030000 -0.322000
2.425000 0.030000 -0.312000
2.386000 0.153000 -0.134000
2.377000 0.158000 -0.139000
2.374000 0.164000 -0.144000
2.391000 0.171000 -0.150000
2.394000 0.177000 -0.155000
2.470000 -0.081000 -0.410000
2.474000 -0.082000 -0.419000
2.467000 -0.107000 -0.629000
2.480000 -0.109000 -0.641000
2.487000 -0.110000 -0.651000
2.491000 -0.111000 -0.660000
2.490000 -0.111000 -0.668000
2.491000 -0.112000 -0.677000
2.636000 -0.127000 -1.056000
2.608000 -0.125000 -1.054000
2.584000 -0.124000 -1.053000
2.558000 -0.122000 -1.051000
2.585000 -0.123000 -1.071000
2.605000 -0.123000 -1.088000
2.623000 -0.124000 -1.104000
2.697000 -0.127000 -1.144000
2.414000 0.112000 -0.256000
2.427000 0.110000 -0.250000
2.423000 0.107000 -0.242000
2.414000 0.103000 -0.234000
2.402000 0.100000 -0.226000
2.388000 0.096000 -0.217000
2.379000 0.093000 -0.209000
2.398000 0.052000 -0.306000
2.422000 0.048000 -0.278000
2.383000 0.045000 -0.258000
2.389000 0.044000 -0.251000
2.394000 0.188000 -0.141000
2.476000 -0.048000 -0.375000
2.472000 -0.049000 -0.383000
2.467000 -0.050000 -0.390000
2.409000 0.133000 -0.254000
2.427000 0.131000 -0.249000
2.426000 0.124000 -0.234000
2.415000 0.120000 -0.226000
2.385000 0.115000 -0.216000
2.375000 0.111000 -0.209000
2.381000 0.094000 -0.174000
2.383000 0.044000 -0.253000
2.388000 0.045000 -0.261000
2.418000 0.049000 -0.280000
2.432000 0.053000 -0.297000
2.396000 0.055000 -0.308000
2.381000 0.169000 -0.163000
2.383000 0.164000 -0.158000
2.392000 0.159000 -0.153000
2.394000 0.153000 -0.147000
2.409000 0.149000 -0.143000
2.489000 -0.153000 -0.503000
2.479000 -0.150000 -0.493000
2.476000 -0.147000 -0.485000
2.483000 -0.144000 -0.479000
2.478000 -0.141000 -0.470000
2.495000 -0.139000 -0.465000
2.378000 0.090000 -0.174000
2.373000 0.094000 -0.180000
2.376000 0.109000 -0.208000
2.379000 0.113000 -0.215000
2.412000 0.134000 -0.252000
2.415000 0.138000 -0.259000
2.425000 0.033000 -0.314000
2.387000 0.158000 -0.176000
2.381000 0.153000 -0.170000
2.409000 0.145000 -0.160000
2.416000 0.140000 -0.155000
2.413000 0.135000 -0.149000
2.408000 0.129000 -0.142000
2.402000 0.124000 -0.136000
2.406000 0.119000 -0.131000
2.415000 0.114000 -0.125000
2.379000 0.093000 -0.213000
2.387000 0.097000 -0.221000
2.399000 0.100000 -0.229000
2.414000 0.104000 -0.237000
2.426000 0.108000 -0.246000
2.423000 0.112000 -0.252000
2.410000 0.114000 -0.258000
2.842000 -0.175000 -1.278000
2.630000 -0.151000 -1.148000
2.719000 -0.151000 -1.169000
2.680000 -0.146000 -1.144000
2.652000 -0.142000 -1.123000
2.624000 -0.137000 -1.103000
2.621000 -0.135000 -1.093000
2.614000 -0.132000 -1.082000
2.618000 -0.130000 -1.075000
2.616000 -0.127000 -1.065000
2.590000 -0.121000 -1.038000
2.593000 -0.119000 -1.030000
2.583000 -0.116000 -1.018000
2.570000 -0.113000 -1.004000
2.562000 -0.111000 -0.993000
2.563000 -0.108000 -0.985000
2.585000 -0.107000 -0.985000
2.569000 -0.104000 -0.970000
2.582000 -0.103000 -0.967000
2.589000 -0.101000 -0.961000
2.609000 -0.100000 -0.959000
2.619000 -0.098000 -0.955000
2.741000 -0.094000 -0.963000
2.809000 -0.094000 -0.977000
2.454000 -0.012000 -0.367000
2.444000 -0.012000 -0.357000
2.462000 -0.011000 -0.352000
2.414000 0.114000 -0.130000
2.411000 0.119000 -0.136000
2.411000 0.125000 -0.142000
2.420000 0.130000 -0.148000
2.425000 0.136000 -0.154000
2.419000 0.141000 -0.159000
2.417000 0.146000 -0.165000
2.381000 0.155000 -0.174000
2.387000 0.160000 -0.180000
2.476000 -0.153000 -0.475000
2.472000 -0.155000 -0.482000
2.473000 -0.157000 -0.490000
2.434000 0.082000 -0.280000
2.429000 0.080000 -0.272000
2.402000 0.073000 -0.246000
2.454000 -0.005000 -0.349000
2.456000 -0.005000 -0.358000
2.417000 0.138000 -0.199000
2.404000 0.133000 -0.192000
2.407000 0.129000 -0.185000
2.415000 0.125000 -0.179000
2.430000 0.121000 -0.174000
2.424000 0.116000 -0.167000
2.433000 0.081000 -0.271000
2.433000 0.084000 -0.279000
2.391000 0.190000 -0.145000
2.391000 0.184000 -0.140000
2.390000 0.178000 -0.135000
2.382000 0.171000 -0.130000
2.378000 0.165000 -0.125000
2.485000 -0.106000 -0.569000
2.472000 -0.069000 -0.414000
2.467000 -0.067000 -0.406000
2.476000 -0.066000 -0.399000
2.431000 0.115000 -0.169000
2.428000 0.119000 -0.175000
2.423000 0.124000 -0.181000
2.418000 0.128000 -0.187000
2.420000 0.133000 -0.194000
2.415000 0.137000 -0.200000
2.415000 0.142000 -0.206000
2.403000 0.049000 -0.309000
2.417000 0.048000 -0.303000
2.401000 0.044000 -0.270000
2.388000 0.043000 -0.260000
2.390000 0.041000 -0.253000
2.396000 0.185000 -0.143000
2.391000 0.191000 -0.147000
2.468000 -0.053000 -0.388000
2.471000 -0.054000 -0.397000
2.417000 0.129000 -0.251000
2.418000 0.119000 -0.229000
2.375000 0.110000 -0.211000
2.371000 0.106000 -0.204000
2.385000 0.041000 -0.251000
2.381000 0.042000 -0.258000
2.393000 0.044000 -0.267000
2.417000 0.046000 -0.277000
2.435000 0.050000 -0.295000
2.418000 0.051000 -0.301000
2.399000 0.052000 -0.306000
2.385000 0.053000 -0.312000
2.384000 0.170000 -0.167000
2.378000 0.164000 -0.161000
2.392000 0.160000 -0.156000
2.402000 0.155000 -0.151000
2.403000 0.150000 -0.146000
2.479000 -0.155000 -0.495000
2.474000 -0.152000 -0.486000
2.473000 -0.149000 -0.479000
2.485000 -0.147000 -0.473000
2.500000 -0.145000 -0.468000
2.383000 0.088000 -0.172000
2.379000 0.091000 -0.179000
2.377000 0.109000 -0.213000
2.395000 0.114000 -0.221000
2.413000 0.119000 -0.230000
2.411000 0.130000 -0.250000
2.411000 0.134000 -0.257000
2.457000 0.009000 -0.343000
2.456000 0.009000 -0.335000
2.398000 0.149000 -0.149000
2.393000 0.154000 -0.154000
2.392000 0.160000 -0.159000
2.378000 0.165000 -0.164000
2.382000 0.171000 -0.169000
2.485000 -0.115000 -0.437000
2.471000 -0.116000 -0.442000
2.481000 -0.118000 -0.452000
2.481000 -0.133000 -0.533000
2.475000 -0.134000 -0.539000
2.634000 -0.193000 -1.248000
2.635000 -0.192000 -1.257000
2.510000 -0.180000 -1.240000
2.488000 -0.178000 -1.237000
2.485000 -0.177000 -1.243000
2.484000 -0.176000 -1.251000
2.489000 -0.175000 -1.262000
2.494000 -0.175000 -1.272000
2.415000 0.096000 -0.265000
2.427000 0.094000 -0.259000
2.449000 0.014000 -0.333000
2.452000 0.014000 -0.342000
2.407000 0.148000 -0.189000
2.411000 0.144000 -0.183000
2.415000 0.139000 -0.177000
2.418000 0.135000 -0.171000
2.423000 0.130000 -0.165000
2.423000 0.125000 -0.159000
2.414000 0.120000 -0.152000
2.407000 0.115000 -0.145000
2.408000 0.110000 -0.139000
2.409000 0.106000 -0.133000
2.427000 0.095000 -0.260000
2.409000 0.097000 -0.265000
2.496000 -0.103000 -0.713000
2.496000 -0.101000 -0.705000
2.489000 -0.099000 -0.695000
2.493000 -0.097000 -0.688000
2.491000 -0.095000 -0.679000
2.491000 -0.093000 -0.671000
2.467000 -0.041000 -0.391000
2.462000 -0.040000 -0.382000
2.463000 -0.039000 -0.374000
2.471000 -0.038000 -0.367000
2.410000 0.105000 -0.137000
2.407000 0.110000 -0.143000
2.405000 0.114000 -0.149000
2.420000 0.120000 -0.156000
2.422000 0.125000 -0.163000
2.418000 0.130000 -0.168000
2.419000 0.135000 -0.175000
2.420000 0.140000 -0.181000
2.405000 0.144000 -0.186000
2.405000 0.149000 -0.192000
2.389000 0.067000 -0.309000
2.393000 0.066000 -0.302000
2.414000 0.065000 -0.297000
2.435000 0.064000 -0.292000
2.436000 0.063000 -0.284000
2.421000 0.061000 -0.275000
2.406000 0.059000 -0.265000
2.392000 0.057000 -0.256000
2.394000 0.056000 -0.249000
2.460000 -0.030000 -0.359000
2.446000 -0.030000 -0.365000
2.455000 -0.031000 -0.374000
2.410000 0.145000 -0.247000
2.398000 0.125000 -0.212000
2.403000 0.122000 -0.205000
2.399000 0.118000 -0.198000
2.395000 0.114000 -0.191000
2.387000 0.109000 -0.184000
2.379000 0.105000 -0.176000
2.377000 0.101000 -0.170000
2.396000 0.056000 -0.252000
2.404000 0.058000 -0.260000
2.416000 0.060000 -0.269000
2.434000 0.064000 -0.287000
2.435000 0.066000 -0.295000
2.383000 0.177000 -0.156000
2.392000 0.172000 -0.151000
2.383000 0.165000 -0.145000
2.378000 0.159000 -0.140000
2.392000 0.155000 -0.135000
2.480000 -0.138000 -0.532000
2.481000 -0.135000 -0.524000
2.488000 -0.133000 -0.517000
2.484000 -0.113000 -0.454000
2.477000 -0.110000 -0.445000
2.480000 -0.108000 -0.437000
2.489000 -0.106000 -0.431000
2.387000 0.098000 -0.170000
2.385000 0.102000 -0.176000
2.384000 0.106000 -0.183000
2.389000 0.110000 -0.190000
2.400000 0.115000 -0.197000
2.399000 0.119000 -0.204000
2.409000 0.123000 -0.211000
2.407000 0.127000 -0.218000
2.406000 0.144000 -0.244000
2.445000 0.027000 -0.329000
2.434000 0.026000 -0.319000
2.428000 0.026000 -0.310000
2.389000 0.153000 -0.138000
2.377000 0.158000 -0.142000
2.382000 0.164000 -0.147000
2.389000 0.171000 -0.153000
2.386000 0.176000 -0.158000
2.477000 -0.087000 -0.413000
2.474000 -0.088000 -0.420000
2.478000 -0.090000 -0.429000
2.481000 -0.109000 -0.568000
2.484000 -0.118000 -0.643000
2.602000 -0.137000 -1.105000
2.573000 -0.135000 -1.102000
2.502000 -0.131000 -1.080000
2.562000 -0.133000 -1.115000
2.589000 -0.134000 -1.135000
2.616000 -0.135000 -1.156000
2.660000 -0.137000 -1.184000
2.725000 -0.139000 -1.222000
2.409000 0.110000 -0.262000
2.424000 0.108000 -0.256000
2.426000 0.105000 -0.249000
2.429000 0.103000 -0.242000
2.409000 0.099000 -0.233000
2.413000 0.096000 -0.226000
2.383000 0.089000 -0.208000
2.422000 0.028000 -0.310000
2.434000 0.030000 -0.320000
2.397000 0.159000 -0.182000
2.385000 0.153000 -0.175000
2.410000 0.150000 -0.171000
2.408000 0.145000 -0.165000
2.411000 0.140000 -0.159000
2.409000 0.134000 -0.153000
2.408000 0.129000 -0.147000
2.408000 0.124000 -0.141000
2.405000 0.119000 -0.135000
2.405000 0.114000 -0.129000
2.411000 0.109000 -0.123000
2.376000 0.088000 -0.211000
2.385000 0.092000 -0.219000
2.401000 0.096000 -0.228000
2.412000 0.100000 -0.236000
2.422000 0.103000 -0.244000
2.428000 0.107000 -0.252000
2.411000 0.109000 -0.258000
2.402000 0.112000 -0.264000
2.676000 -0.194000 -1.227000
2.658000 -0.107000 -0.933000
2.638000 -0.104000 -0.917000
2.504000 -0.093000 -0.846000
2.502000 -0.091000 -0.837000
2.448000 -0.018000 -0.367000
2.444000 -0.018000 -0.358000
2.460000 -0.017000 -0.353000
2.410000 0.111000 -0.131000
2.405000 0.116000 -0.136000
2.408000 0.121000 -0.142000
2.415000 0.127000 -0.149000
2.415000 0.132000 -0.154000
2.413000 0.137000 -0.160000
2.414000 0.142000 -0.166000
2.407000 0.147000 -0.171000
2.388000 0.151000 -0.176000
2.392000 0.157000 -0.182000
2.480000 -0.164000 -0.481000
2.436000 0.077000 -0.281000
2.444000 0.075000 -0.274000
2.412000 0.071000 -0.255000
2.397000 0.068000 -0.246000
2.449000 -0.012000 -0.351000
2.452000 -0.012000 -0.360000
2.419000 0.137000 -0.206000
2.408000 0.132000 -0.198000
2.399000 0.127000 -0.191000
2.390000 0.122000 -0.184000
2.403000 0.119000 -0.178000
2.425000 0.116000 -0.173000
2.428000 0.112000 -0.167000
2.401000 0.069000 -0.251000
2.429000 0.076000 -0.276000
2.431000 0.079000 -0.284000
2.387000 0.183000 -0.146000
2.388000 0.178000 -0.141000
2.376000 0.171000 -0.135000
2.371000 0.164000 -0.130000
2.379000 0.159000 -0.125000
2.477000 -0.121000 -0.575000
2.484000 -0.119000 -0.569000
2.492000 -0.117000 -0.562000
2.478000 -0.081000 -0.424000
2.472000 -0.079000 -0.415000
2.481000 -0.077000 -0.409000
2.429000 0.110000 -0.169000
2.423000 0.114000 -0.175000
2.408000 0.117000 -0.181000
2.398000 0.121000 -0.187000
2.400000 0.126000 -0.193000
2.416000 0.131000 -0.201000
2.415000 0.136000 -0.207000
2.426000 0.042000 -0.314000
2.427000 0.041000 -0.306000
2.405000 0.038000 -0.272000
2.390000 0.036000 -0.263000
2.376000 0.161000 -0.131000
2.377000 0.167000 -0.136000
2.396000 0.175000 -0.141000
2.388000 0.180000 -0.146000
2.392000 0.187000 -0.151000
2.479000 -0.064000 -0.396000
2.473000 -0.065000 -0.403000
2.501000 -0.088000 -0.715000
2.495000 -0.088000 -0.722000
2.495000 -0.088000 -0.730000
2.495000 -0.089000 -0.739000
2.497000 -0.089000 -0.756000
2.662000 -0.095000 -0.923000
2.744000 -0.097000 -0.971000
2.798000 -0.099000 -0.999000
2.417000 0.122000 -0.254000
2.430000 0.117000 -0.240000
2.420000 0.113000 -0.232000
2.398000 0.109000 -0.223000
2.378000 0.104000 -0.214000
2.376000 0.101000 -0.207000
2.390000 0.035000 -0.254000
2.389000 0.036000 -0.261000
2.399000 0.037000 -0.270000
2.419000 0.043000 -0.304000
2.406000 0.044000 -0.310000
2.381000 0.164000 -0.170000
2.383000 0.159000 -0.164000
2.402000 0.155000 -0.160000
2.434000 0.141000 -0.145000
2.424000 0.135000 -0.138000
2.416000 0.129000 -0.132000
2.375000 0.101000 -0.210000
2.381000 0.104000 -0.218000
2.418000 0.113000 -0.235000
2.428000 0.121000 -0.250000
2.421000 0.124000 -0.257000
2.495000 -0.167000 -1.273000
2.499000 -0.165000 -1.268000
2.505000 -0.162000 -1.263000
2.512000 -0.160000 -1.259000
2.532000 -0.158000 -1.261000
2.653000 -0.148000 -1.271000
2.671000 -0.146000 -1.271000
2.687000 -0.141000 -1.261000
2.460000 0.000000 -0.357000
2.462000 0.000000 -0.349000
2.406000 0.153000 -0.162000
2.378000 0.162000 -0.171000
2.497000 -0.133000 -0.455000
2.480000 -0.133000 -0.460000
2.488000 -0.136000 -0.470000
2.492000 -0.141000 -0.495000
2.481000 -0.143000 -0.501000
2.477000 -0.144000 -0.508000
2.484000 -0.146000 -0.517000
2.487000 -0.148000 -0.526000
2.430000 0.090000 -0.273000
2.434000 0.088000 -0.265000
2.452000 0.005000 -0.339000
2.458000 0.005000 -0.348000
2.410000 0.145000 -0.196000
2.417000 0.140000 -0.190000
2.416000 0.136000 -0.183000
2.417000 0.131000 -0.177000
2.423000 0.127000 -0.171000
2.430000 0.123000 -0.165000
2.431000 0.118000 -0.159000
2.422000 0.113000 -0.152000
2.407000 0.108000 -0.144000
2.432000 0.086000 -0.260000
2.422000 0.088000 -0.266000
2.390000 0.195000 -0.139000
2.399000 0.189000 -0.135000
2.494000 -0.111000 -0.663000
2.489000 -0.109000 -0.653000
2.480000 -0.106000 -0.643000
2.472000 -0.104000 -0.633000
2.469000 -0.054000 -0.400000
2.470000 -0.053000 -0.392000
2.414000 0.105000 -0.146000
2.411000 0.110000 -0.152000
2.428000 0.115000 -0.160000
2.428000 0.120000 -0.166000
2.425000 0.125000 -0.172000
2.418000 0.129000 -0.178000
2.421000 0.134000 -0.184000
2.411000 0.138000 -0.190000
2.412000 0.143000 -0.196000
2.392000 0.057000 -0.305000
2.440000 0.056000 -0.296000
2.422000 0.053000 -0.278000
2.407000 0.051000 -0.268000
2.389000 0.050000 -0.259000
2.384000 0.048000 -0.250000
2.466000 -0.041000 -0.366000
2.458000 -0.041000 -0.373000
2.456000 -0.042000 -0.380000
2.470000 -0.042000 -0.391000
2.410000 0.138000 -0.252000
2.410000 0.124000 -0.224000
2.380000 0.115000 -0.208000
2.383000 0.101000 -0.181000
2.378000 0.097000 -0.173000
2.387000 0.094000 -0.167000
2.393000 0.048000 -0.252000
2.394000 0.050000 -0.260000
2.405000 0.051000 -0.269000
2.416000 0.053000 -0.278000
2.434000 0.056000 -0.288000
2.428000 0.057000 -0.295000
2.409000 0.059000 -0.300000
2.387000 0.060000 -0.305000
2.394000 0.062000 -0.313000
2.373000 0.172000 -0.161000
2.391000 0.168000 -0.156000
2.390000 0.162000 -0.151000
2.387000 0.156000 -0.145000
2.400000 0.151000 -0.141000
2.489000 -0.151000 -0.521000
2.483000 -0.148000 -0.512000
2.477000 -0.145000 -0.503000
2.487000 -0.142000 -0.498000
2.496000 -0.140000 -0.491000
2.507000 -0.138000 -0.486000
2.485000 -0.134000 -0.474000
2.481000 -0.131000 -0.465000
2.484000 -0.129000 -0.458000
2.498000 -0.127000 -0.453000
2.374000 0.093000 -0.172000
2.381000 0.097000 -0.179000
2.386000 0.101000 -0.186000
2.397000 0.105000 -0.194000
2.392000 0.113000 -0.207000
2.388000 0.116000 -0.213000
2.399000 0.121000 -0.221000
2.408000 0.137000 -0.249000
2.411000 0.141000 -0.256000
2.451000 0.018000 -0.339000
2.458000 0.018000 -0.332000
2.392000 0.149000 -0.142000
2.387000 0.155000 -0.147000
2.386000 0.160000 -0.152000
2.392000 0.167000 -0.158000
2.384000 0.172000 -0.163000
2.484000 -0.103000 -0.428000
2.471000 -0.104000 -0.434000
2.478000 -0.105000 -0.443000
2.488000 -0.124000 -0.551000
2.471000 -0.124000 -0.555000
2.473000 -0.125000 -0.564000
2.486000 -0.127000 -0.575000
2.565000 -0.161000 -1.199000
2.535000 -0.159000 -1.193000
2.498000 -0.156000 -1.185000
2.490000 -0.155000 -1.189000
2.496000 -0.155000 -1.200000
2.569000 -0.157000 -1.252000
2.411000 0.103000 -0.265000
2.428000 0.101000 -0.259000
2.434000 0.098000 -0.252000
2.452000 0.012000 -0.339000
2.398000 0.147000 -0.145000
2.394000 0.153000 -0.150000
2.391000 0.158000 -0.155000
2.384000 0.163000 -0.160000
2.376000 0.168000 -0.165000
2.485000 -0.110000 -0.434000
2.475000 -0.111000 -0.440000
2.486000 -0.113000 -0.450000
2.490000 -0.129000 -0.532000
2.486000 -0.130000 -0.539000
2.624000 -0.180000 -1.267000
2.551000 -0.174000 -1.240000
2.493000 -0.170000 -1.221000
2.486000 -0.168000 -1.225000
2.486000 -0.168000 -1.233000
2.487000 -0.167000 -1.242000
2.486000 -0.166000 -1.250000
2.491000 -0.166000 -1.260000
2.497000 -0.165000 -1.272000
2.491000 -0.164000 -1.277000
2.411000 0.099000 -0.267000
2.419000 0.097000 -0.260000
2.446000 0.016000 -0.330000
2.448000 0.017000 -0.338000
2.410000 0.152000 -0.190000
2.400000 0.146000 -0.183000
2.414000 0.143000 -0.178000
2.416000 0.138000 -0.172000
2.419000 0.133000 -0.166000
2.421000 0.128000 -0.160000
2.422000 0.124000 -0.154000
2.412000 0.118000 -0.147000
2.406000 0.113000 -0.140000
2.402000 0.108000 -0.134000
2.416000 0.086000 -0.232000
2.423000 0.095000 -0.255000
2.412000 0.098000 -0.261000
2.495000 -0.098000 -0.726000
2.492000 -0.096000 -0.716000
2.494000 -0.095000 -0.709000
2.490000 -0.093000 -0.700000
2.496000 -0.091000 -0.693000
2.470000 -0.036000 -0.387000
2.454000 -0.035000 -0.377000
2.461000 -0.034000 -0.369000
2.468000 -0.033000 -0.362000
2.408000 0.092000 -0.235000
2.447000 0.020000 -0.323000
2.447000 0.021000 -0.330000
2.398000 0.153000 -0.187000
2.394000 0.148000 -0.180000
2.410000 0.139000 -0.169000
2.420000 0.135000 -0.163000
2.418000 0.130000 -0.157000
2.412000 0.124000 -0.150000
2.407000 0.119000 -0.144000
2.406000 0.114000 -0.138000
2.406000 0.110000 -0.132000
2.410000 0.090000 -0.233000
2.429000 0.096000 -0.250000
2.421000 0.099000 -0.256000
2.408000 0.102000 -0.262000
2.494000 -0.093000 -0.730000
2.493000 -0.091000 -0.722000
2.496000 -0.090000 -0.715000
2.502000 -0.088000 -0.708000
2.462000 -0.032000 -0.382000
2.447000 -0.031000 -0.372000
2.457000 -0.030000 -0.365000
2.475000 -0.030000 -0.360000
2.411000 0.103000 -0.130000
2.410000 0.108000 -0.136000
2.406000 0.113000 -0.142000
2.410000 0.118000 -0.148000
2.410000 0.123000 -0.154000
2.416000 0.128000 -0.161000
2.412000 0.133000 -0.166000
2.412000 0.138000 -0.172000
2.412000 0.143000 -0.178000
2.397000 0.148000 -0.183000
2.407000 0.153000 -0.190000
2.400000 0.072000 -0.307000
2.407000 0.071000 -0.301000
2.425000 0.070000 -0.295000
2.435000 0.069000 -0.288000
2.441000 0.067000 -0.281000
2.409000 0.063000 -0.262000
2.397000 0.061000 -0.253000
2.389000 0.059000 -0.245000
2.461000 -0.024000 -0.355000
2.455000 -0.024000 -0.362000
2.452000 -0.024000 -0.369000
2.416000 0.148000 -0.242000
2.415000 0.132000 -0.215000
2.414000 0.128000 -0.208000
2.398000 0.123000 -0.200000
2.392000 0.119000 -0.193000
2.383000 0.114000 -0.185000
2.384000 0.111000 -0.179000
2.389000 0.107000 -0.172000
2.398000 0.059000 -0.249000
2.408000 0.061000 -0.258000
2.416000 0.063000 -0.266000
2.430000 0.068000 -0.283000
2.390000 0.181000 -0.154000
2.391000 0.175000 -0.149000
2.384000 0.169000 -0.144000
2.376000 0.162000 -0.138000
2.383000 0.157000 -0.133000
2.476000 -0.130000 -0.533000
2.487000 -0.128000 -0.527000
2.482000 -0.104000 -0.447000
2.476000 -0.102000 -0.439000
2.483000 -0.100000 -0.432000
2.481000 -0.097000 -0.424000
2.397000 0.105000 -0.176000
2.382000 0.108000 -0.181000
2.383000 0.113000 -0.188000
2.392000 0.117000 -0.195000
2.402000 0.122000 -0.202000
2.418000 0.127000 -0.210000
2.419000 0.131000 -0.217000
2.442000 0.031000 -0.328000
2.433000 0.030000 -0.318000
2.424000 0.030000 -0.309000
2.377000 0.154000 -0.135000
2.372000 0.160000 -0.140000
2.380000 0.166000 -0.145000
2.394000 0.173000 -0.151000
2.394000 0.179000 -0.156000
2.475000 -0.081000 -0.406000
2.477000 -0.082000 -0.415000
2.477000 -0.084000 -0.423000
2.480000 -0.109000 -0.636000
2.483000 -0.110000 -0.645000
2.488000 -0.111000 -0.655000
2.491000 -0.112000 -0.664000
2.493000 -0.113000 -0.673000
2.659000 -0.129000 -1.069000
2.617000 -0.127000 -1.061000
2.591000 -0.125000 -1.060000
2.562000 -0.124000 -1.057000
2.575000 -0.124000 -1.071000
2.592000 -0.124000 -1.086000
2.616000 -0.125000 -1.105000
2.679000 -0.127000 -1.141000
2.736000 -0.129000 -1.175000
2.798000 -0.132000 -1.211000
2.411000 0.113000 -0.260000
2.423000 0.111000 -0.253000
2.424000 0.108000 -0.246000
2.417000 0.104000 -0.238000
2.409000 0.101000 -0.230000
2.398000 0.098000 -0.222000
2.383000 0.094000 -0.213000
2.384000 0.091000 -0.206000
2.425000 0.032000 -0.312000
2.430000 0.033000 -0.321000
2.391000 0.159000 -0.178000
2.381000 0.153000 -0.172000
2.408000 0.145000 -0.162000
2.413000 0.140000 -0.156000
2.414000 0.135000 -0.150000
2.409000 0.129000 -0.144000
2.405000 0.124000 -0.138000
2.405000 0.119000 -0.132000
2.409000 0.114000 -0.126000
2.376000 0.092000 -0.213000
2.392000 0.096000 -0.222000
2.407000 0.100000 -0.231000
2.418000 0.103000 -0.239000
2.426000 0.107000 -0.247000
2.424000 0.110000 -0.254000
2.409000 0.113000 -0.259000
2.703000 -0.123000 -1.034000
2.710000 -0.121000 -1.028000
2.633000 -0.113000 -0.981000
2.624000 -0.110000 -0.969000
2.625000 -0.108000 -0.961000
2.608000 -0.105000 -0.946000
2.597000 -0.103000 -0.934000
2.580000 -0.100000 -0.919000
2.599000 -0.097000 -0.909000
2.604000 -0.095000 -0.902000
2.452000 -0.016000 -0.372000
2.447000 -0.015000 -0.363000
2.453000 -0.015000 -0.356000
2.468000 -0.014000 -0.350000
2.415000 0.110000 -0.127000
2.413000 0.115000 -0.133000
2.405000 0.120000 -0.139000
2.413000 0.125000 -0.145000
2.413000 0.130000 -0.151000
2.422000 0.136000 -0.157000
2.421000 0.142000 -0.163000
2.414000 0.146000 -0.168000
2.387000 0.155000 -0.178000
2.483000 -0.158000 -0.471000
2.486000 -0.161000 -0.480000
2.480000 -0.162000 -0.486000
2.436000 0.080000 -0.283000
2.439000 0.078000 -0.276000
2.403000 0.071000 -0.249000
2.396000 0.069000 -0.241000
2.459000 -0.010000 -0.349000
2.450000 -0.009000 -0.356000
2.459000 -0.009000 -0.366000
2.420000 0.139000 -0.208000
2.415000 0.135000 -0.201000
2.395000 0.130000 -0.193000
2.390000 0.125000 -0.186000
2.396000 0.121000 -0.180000
2.417000 0.118000 -0.175000
2.433000 0.115000 -0.169000
2.435000 0.077000 -0.274000
2.434000 0.080000 -0.282000
2.393000 0.187000 -0.147000
2.387000 0.180000 -0.142000
2.382000 0.174000 -0.136000
2.368000 0.167000 -0.131000
2.377000 0.162000 -0.126000
2.480000 -0.117000 -0.571000
2.493000 -0.116000 -0.566000
2.479000 -0.080000 -0.427000
2.475000 -0.078000 -0.419000
2.474000 -0.076000 -0.411000
2.484000 -0.075000 -0.404000
2.432000 0.113000 -0.173000
2.419000 0.117000 -0.179000
2.407000 0.121000 -0.184000
2.401000 0.125000 -0.190000
2.411000 0.130000 -0.198000
2.423000 0.135000 -0.205000
2.426000 0.042000 -0.309000
2.394000 0.038000 -0.266000
2.389000 0.037000 -0.257000
2.382000 0.160000 -0.129000
2.378000 0.166000 -0.134000
2.384000 0.172000 -0.139000
2.391000 0.179000 -0.144000
2.389000 0.185000 -0.148000
2.470000 -0.062000 -0.392000
2.466000 -0.063000 -0.400000
2.501000 -0.087000 -0.738000
2.503000 -0.087000 -0.747000
2.499000 -0.087000 -0.754000
2.724000 -0.095000 -0.942000
2.776000 -0.097000 -0.970000
2.420000 0.124000 -0.256000
2.429000 0.121000 -0.249000
2.418000 0.114000 -0.234000
2.401000 0.110000 -0.225000
2.380000 0.106000 -0.216000
2.376000 0.102000 -0.209000
2.386000 0.035000 -0.252000
2.388000 0.036000 -0.260000
2.397000 0.037000 -0.268000
2.420000 0.043000 -0.302000
2.407000 0.044000 -0.308000
2.384000 0.166000 -0.171000
2.377000 0.160000 -0.165000
2.399000 0.156000 -0.161000
2.420000 0.136000 -0.139000
2.416000 0.130000 -0.133000
2.366000 0.099000 -0.208000
2.375000 0.103000 -0.215000
2.422000 0.112000 -0.233000
2.422000 0.123000 -0.255000
2.490000 -0.168000 -1.272000
2.497000 -0.165000 -1.268000
2.505000 -0.163000 -1.264000
2.511000 -0.160000 -1.260000
2.526000 -0.158000 -1.260000
2.650000 -0.148000 -1.272000
2.668000 -0.146000 -1.272000
2.691000 -0.145000 -1.274000
2.686000 -0.142000 -1.263000
2.457000 0.000000 -0.358000
2.456000 0.000000 -0.350000
2.465000 0.000000 -0.343000
2.399000 0.151000 -0.160000
2.382000 0.156000 -0.164000
2.377000 0.161000 -0.170000
2.386000 0.167000 -0.176000
2.501000 -0.133000 -0.455000
2.483000 -0.134000 -0.459000
2.487000 -0.136000 -0.468000
2.491000 -0.142000 -0.493000
2.482000 -0.143000 -0.499000
2.482000 -0.145000 -0.507000
2.484000 -0.147000 -0.516000
2.492000 -0.149000 -0.526000
2.427000 0.090000 -0.274000
2.429000 0.087000 -0.266000
2.458000 0.003000 -0.339000
2.453000 0.004000 -0.346000
2.415000 0.145000 -0.197000
2.417000 0.141000 -0.191000
2.412000 0.136000 -0.184000
2.414000 0.131000 -0.178000
2.425000 0.127000 -0.172000
2.426000 0.123000 -0.166000
2.429000 0.118000 -0.160000
2.432000 0.114000 -0.154000
2.422000 0.087000 -0.266000
2.421000 0.090000 -0.273000
2.393000 0.195000 -0.141000
2.394000 0.189000 -0.136000
2.492000 -0.113000 -0.654000
2.485000 -0.111000 -0.644000
2.466000 -0.056000 -0.399000
2.474000 -0.055000 -0.393000
2.411000 0.104000 -0.146000
2.421000 0.109000 -0.153000
2.428000 0.114000 -0.160000
2.428000 0.119000 -0.166000
2.429000 0.123000 -0.172000
2.424000 0.128000 -0.178000
2.422000 0.132000 -0.185000
2.417000 0.137000 -0.190000
2.415000 0.142000 -0.197000
2.396000 0.055000 -0.307000
2.424000 0.055000 -0.303000
2.446000 0.054000 -0.297000
2.419000 0.051000 -0.279000
2.400000 0.050000 -0.269000
2.383000 0.048000 -0.259000
2.388000 0.047000 -0.252000
2.465000 -0.044000 -0.373000
2.467000 -0.044000 -0.381000
2.462000 -0.045000 -0.389000
2.413000 0.137000 -0.254000
2.410000 0.123000 -0.225000
2.379000 0.114000 -0.209000
2.385000 0.100000 -0.182000
2.379000 0.096000 -0.174000
2.385000 0.093000 -0.168000
2.393000 0.046000 -0.252000
2.392000 0.048000 -0.260000
2.403000 0.049000 -0.269000
2.415000 0.051000 -0.278000
2.429000 0.053000 -0.287000
2.433000 0.055000 -0.295000
2.414000 0.056000 -0.301000
2.392000 0.058000 -0.306000
2.393000 0.059000 -0.313000
2.383000 0.172000 -0.163000
2.384000 0.166000 -0.157000
2.387000 0.161000 -0.152000
2.392000 0.156000 -0.147000
2.401000 0.151000 -0.142000
2.487000 -0.151000 -0.513000
2.482000 -0.148000 -0.504000
2.477000 -0.145000 -0.495000
2.486000 -0.143000 -0.489000
2.493000 -0.141000 -0.483000
2.490000 -0.138000 -0.475000
2.485000 -0.135000 -0.466000
2.499000 -0.133000 -0.461000
2.379000 0.091000 -0.172000
2.379000 0.095000 -0.179000
2.385000 0.099000 -0.186000
2.382000 0.111000 -0.206000
2.377000 0.114000 -0.213000
2.414000 0.136000 -0.250000
2.409000 0.139000 -0.256000
2.453000 0.015000 -0.340000
2.460000 0.015000 -0.332000
2.397000 0.148000 -0.143000
2.389000 0.153000 -0.148000
2.388000 0.159000 -0.153000
2.388000 0.165000 -0.159000
2.378000 0.170000 -0.163000
2.480000 -0.107000 -0.434000
2.479000 -0.108000 -0.442000
2.488000 -0.126000 -0.541000
2.476000 -0.126000 -0.547000
2.486000 -0.131000 -0.574000
2.744000 -0.181000 -1.281000
2.488000 -0.161000 -1.203000
2.482000 -0.160000 -1.209000
2.511000 -0.160000 -1.239000
2.509000 -0.159000 -1.247000
2.520000 -0.159000 -1.260000
2.519000 -0.157000 -1.276000
2.411000 0.101000 -0.266000
2.424000 0.099000 -0.260000
2.436000 0.097000 -0.253000
2.413000 0.091000 -0.236000
2.447000 0.019000 -0.330000
2.445000 0.020000 -0.337000
2.400000 0.152000 -0.188000
2.391000 0.147000 -0.181000
2.409000 0.139000 -0.170000
2.415000 0.134000 -0.164000
2.420000 0.129000 -0.158000
2.416000 0.124000 -0.152000
2.407000 0.119000 -0.145000
2.402000 0.114000 -0.139000
2.405000 0.109000 -0.133000
2.403000 0.088000 -0.232000
2.432000 0.095000 -0.250000
2.423000 0.098000 -0.256000
2.413000 0.100000 -0.262000
2.496000 -0.094000 -0.723000
2.488000 -0.092000 -0.712000
2.498000 -0.091000 -0.707000
2.492000 -0.089000 -0.697000
2.461000 -0.034000 -0.382000
2.450000 -0.033000 -0.373000
2.459000 -0.032000 -0.366000
2.402000 0.107000 -0.136000
2.406000 0.112000 -0.142000
2.408000 0.117000 -0.148000
2.410000 0.122000 -0.154000
2.416000 0.128000 -0.161000
2.415000 0.132000 -0.167000
2.414000 0.137000 -0.173000
2.417000 0.143000 -0.179000
2.400000 0.147000 -0.184000
2.404000 0.152000 -0.190000
2.396000 0.072000 -0.308000
2.405000 0.070000 -0.302000
2.421000 0.069000 -0.296000
2.437000 0.068000 -0.290000
2.437000 0.067000 -0.283000
2.419000 0.065000 -0.273000
2.412000 0.063000 -0.264000
2.400000 0.061000 -0.255000
2.396000 0.059000 -0.247000
2.451000 -0.025000 -0.360000
2.453000 -0.025000 -0.368000
2.459000 -0.025000 -0.377000
2.403000 0.147000 -0.243000
2.412000 0.132000 -0.216000
2.412000 0.128000 -0.209000
2.407000 0.124000 -0.202000
2.395000 0.119000 -0.194000
2.385000 0.115000 -0.187000
2.381000 0.111000 -0.180000
2.389000 0.107000 -0.174000
2.395000 0.104000 -0.167000
2.390000 0.058000 -0.246000
2.401000 0.060000 -0.255000
2.412000 0.063000 -0.264000
2.434000 0.067000 -0.281000
2.433000 0.069000 -0.289000
2.392000 0.183000 -0.156000
2.393000 0.177000 -0.151000
2.388000 0.171000 -0.146000
2.375000 0.164000 -0.140000
2.375000 0.158000 -0.135000
2.389000 0.154000 -0.130000
2.475000 -0.131000 -0.536000
2.487000 -0.129000 -0.531000
2.483000 -0.103000 -0.443000
2.477000 -0.100000 -0.434000
2.485000 -0.098000 -0.428000
2.394000 0.103000 -0.172000
2.392000 0.107000 -0.179000
2.386000 0.111000 -0.185000
2.388000 0.115000 -0.192000
2.396000 0.120000 -0.199000
2.410000 0.125000 -0.207000
2.417000 0.129000 -0.214000
2.443000 0.032000 -0.324000
2.427000 0.031000 -0.314000
2.373000 0.157000 -0.137000
2.378000 0.163000 -0.142000
2.387000 0.170000 -0.148000
2.395000 0.177000 -0.153000
2.390000 0.182000 -0.158000
2.474000 -0.080000 -0.411000
2.474000 -0.081000 -0.419000
2.475000 -0.106000 -0.631000
2.481000 -0.107000 -0.641000
2.486000 -0.108000 -0.651000
2.491000 -0.109000 -0.660000
2.490000 -0.110000 -0.668000
2.491000 -0.110000 -0.677000
2.492000 -0.111000 -0.686000
2.639000 -0.125000 -1.048000
2.600000 -0.123000 -1.041000
2.584000 -0.122000 -1.044000
2.546000 -0.119000 -1.037000
2.580000 -0.121000 -1.060000
2.598000 -0.121000 -1.076000
2.648000 -0.123000 -1.106000
2.716000 -0.126000 -1.143000
2.414000 0.113000 -0.256000
2.431000 0.110000 -0.250000
2.423000 0.107000 -0.242000
2.415000 0.104000 -0.234000
2.404000 0.100000 -0.226000
2.382000 0.096000 -0.216000
2.380000 0.093000 -0.209000
2.419000 0.033000 -0.307000
2.425000 0.034000 -0.316000
2.386000 0.157000 -0.174000
2.393000 0.153000 -0.169000
2.409000 0.143000 -0.158000
2.416000 0.139000 -0.153000
2.410000 0.133000 -0.147000
2.408000 0.128000 -0.141000
2.405000 0.123000 -0.134000
2.412000 0.118000 -0.129000
2.415000 0.113000 -0.123000
2.373000 0.091000 -0.209000
2.380000 0.095000 -0.216000
2.397000 0.099000 -0.225000
2.413000 0.103000 -0.234000
2.424000 0.107000 -0.242000
2.426000 0.110000 -0.249000
2.416000 0.113000 -0.255000
2.404000 0.116000 -0.261000
2.813000 -0.175000 -1.266000
2.624000 -0.152000 -1.147000
2.685000 -0.153000 -1.165000
2.734000 -0.153000 -1.177000
2.696000 -0.148000 -1.152000
2.662000 -0.143000 -1.129000
2.644000 -0.140000 -1.113000
2.623000 -0.136000 -1.096000
2.616000 -0.133000 -1.084000
2.621000 -0.131000 -1.077000
2.621000 -0.128000 -1.069000
2.592000 -0.122000 -1.040000
2.592000 -0.120000 -1.032000
2.584000 -0.117000 -1.020000
2.578000 -0.115000 -1.009000
2.568000 -0.112000 -0.997000
2.560000 -0.109000 -0.985000
2.578000 -0.108000 -0.983000
2.568000 -0.105000 -0.971000
2.586000 -0.104000 -0.969000
2.591000 -0.102000 -0.963000
2.603000 -0.100000 -0.958000
2.778000 -0.094000 -0.968000
2.897000 -0.096000 -1.000000
2.457000 -0.013000 -0.369000
2.443000 -0.012000 -0.359000
2.453000 -0.011000 -0.352000
2.414000 0.113000 -0.129000
2.416000 0.118000 -0.135000
2.410000 0.124000 -0.140000
2.420000 0.129000 -0.147000
2.425000 0.135000 -0.153000
2.418000 0.140000 -0.158000
2.420000 0.145000 -0.164000
2.399000 0.149000 -0.168000
2.379000 0.153000 -0.173000
2.392000 0.160000 -0.179000
2.412000 0.105000 -0.134000
2.403000 0.109000 -0.140000
2.402000 0.114000 -0.146000
2.411000 0.119000 -0.152000
2.419000 0.125000 -0.159000
2.419000 0.130000 -0.165000
2.420000 0.135000 -0.171000
2.418000 0.140000 -0.177000
2.402000 0.144000 -0.182000
2.401000 0.149000 -0.188000
2.392000 0.071000 -0.312000
2.397000 0.070000 -0.305000
2.407000 0.068000 -0.298000
2.442000 0.066000 -0.287000
2.430000 0.064000 -0.278000
2.413000 0.062000 -0.268000
2.398000 0.060000 -0.259000
2.392000 0.059000 -0.251000
2.458000 -0.026000 -0.356000
2.447000 -0.026000 -0.363000
2.456000 -0.026000 -0.372000
2.406000 0.149000 -0.248000
2.413000 0.130000 -0.214000
2.404000 0.125000 -0.206000
2.401000 0.121000 -0.199000
2.395000 0.117000 -0.192000
2.387000 0.113000 -0.185000
2.383000 0.109000 -0.178000
2.384000 0.105000 -0.171000
2.394000 0.057000 -0.249000
2.401000 0.060000 -0.257000
2.412000 0.062000 -0.266000
2.434000 0.067000 -0.284000
2.439000 0.069000 -0.292000
2.391000 0.181000 -0.156000
2.396000 0.175000 -0.151000
2.384000 0.169000 -0.145000
2.379000 0.162000 -0.139000
2.384000 0.157000 -0.135000
2.480000 -0.132000 -0.535000
2.487000 -0.130000 -0.528000
2.482000 -0.106000 -0.449000
2.481000 -0.104000 -0.441000
2.484000 -0.101000 -0.433000
2.480000 -0.099000 -0.425000
2.389000 0.103000 -0.174000
2.388000 0.107000 -0.180000
2.384000 0.111000 -0.187000
2.394000 0.116000 -0.194000
2.402000 0.120000 -0.201000
2.411000 0.125000 -0.209000
2.419000 0.130000 -0.216000
2.490000 -0.153000 -0.470000
2.479000 -0.154000 -0.475000
2.473000 -0.156000 -0.482000
2.477000 -0.158000 -0.491000
2.432000 0.081000 -0.279000
2.432000 0.079000 -0.271000
2.404000 0.075000 -0.253000
2.396000 0.072000 -0.245000
2.458000 -0.006000 -0.353000
2.455000 -0.005000 -0.360000
2.416000 0.140000 -0.203000
2.416000 0.135000 -0.196000
2.399000 0.130000 -0.189000
2.408000 0.126000 -0.183000
2.419000 0.123000 -0.177000
2.429000 0.119000 -0.171000
2.429000 0.114000 -0.165000
2.431000 0.079000 -0.270000
2.425000 0.082000 -0.276000
2.383000 0.184000 -0.141000
2.398000 0.179000 -0.137000
2.381000 0.172000 -0.131000
2.381000 0.166000 -0.126000
2.503000 -0.110000 -0.572000
2.475000 -0.072000 -0.414000
2.473000 -0.070000 -0.406000
2.437000 0.109000 -0.163000
2.424000 0.113000 -0.169000
2.425000 0.118000 -0.176000
2.418000 0.122000 -0.181000
2.416000 0.127000 -0.188000
2.412000 0.131000 -0.194000
2.416000 0.136000 -0.201000
2.412000 0.140000 -0.207000
2.417000 0.047000 -0.309000
2.421000 0.046000 -0.302000
2.398000 0.042000 -0.268000
2.383000 0.040000 -0.259000
2.392000 0.039000 -0.252000
2.382000 0.166000 -0.130000
2.386000 0.173000 -0.135000
2.400000 0.180000 -0.141000
2.391000 0.186000 -0.145000
2.393000 0.192000 -0.149000
2.470000 -0.057000 -0.392000
2.471000 -0.058000 -0.400000
2.418000 0.128000 -0.255000
2.425000 0.125000 -0.249000
2.423000 0.118000 -0.234000
2.411000 0.114000 -0.226000
2.380000 0.110000 -0.216000
2.376000 0.106000 -0.209000
2.386000 0.038000 -0.249000
2.385000 0.040000 -0.257000
2.393000 0.041000 -0.266000
2.427000 0.048000 -0.301000
2.396000 0.050000 -0.312000
2.377000 0.164000 -0.164000
2.386000 0.159000 -0.159000
2.400000 0.154000 -0.154000
2.404000 0.149000 -0.149000
2.475000 -0.161000 -0.494000
2.483000 -0.158000 -0.488000
2.485000 -0.155000 -0.481000
2.487000 -0.152000 -0.474000
2.380000 0.106000 -0.212000
2.391000 0.110000 -0.220000
2.418000 0.115000 -0.230000
2.420000 0.127000 -0.251000
2.559000 -0.133000 -1.263000
2.568000 -0.131000 -1.259000
2.456000 0.005000 -0.351000
2.456000 0.006000 -0.343000
2.402000 0.149000 -0.152000
