# .PCD v0.7 - Point Cloud Data file format
VERSION 0.7
FIELDS x y z
SIZE 4 4 4
TYPE F F F
COUNT 1 1 1
WIDTH 1674
HEIGHT 1
VIEWPOINT 0 0 0 1 0 0 0
POINTS 1674
DATA ascii
2.250000 0.051000 0.068000
2.258000 0.056000 0.074000
2.265000 0.000000 0.228000
2.404000 0.069000 -0.642000
2.411000 0.070000 -0.652000
2.269000 0.075000 -0.088000
2.258000 0.069000 -0.082000
2.271000 0.065000 -0.077000
2.267000 0.054000 -0.007000
2.268000 0.061000 -0.008000
2.264000 0.052000 0.029000
2.270000 0.046000 0.026000
2.265000 0.038000 0.111000
2.254000 0.040000 0.117000
2.261000 0.042000 0.125000
2.262000 0.044000 0.132000
2.262000 0.047000 0.139000
2.268000 0.072000 -0.186000
2.264000 0.075000 -0.193000
2.263000 0.077000 -0.200000
2.267000 0.080000 -0.207000
2.261000 0.083000 -0.213000
2.261000 0.086000 -0.220000
2.261000 0.065000 -0.040000
2.265000 0.059000 -0.036000
2.264000 0.055000 0.009000
2.267000 0.049000 0.054000
2.264000 0.044000 0.048000
2.265000 0.001000 0.207000
2.269000 0.001000 0.229000
2.270000 0.061000 -0.077000
2.268000 0.066000 -0.082000
2.264000 0.070000 -0.088000
2.273000 0.075000 -0.094000
2.257000 0.058000 -0.014000
2.266000 0.051000 0.027000
2.274000 0.058000 0.030000
2.251000 0.051000 0.111000
2.244000 0.048000 0.104000
2.245000 0.044000 0.097000
2.240000 0.041000 0.091000
2.249000 0.038000 0.084000
2.247000 0.035000 0.078000
2.256000 0.032000 0.071000
2.279000 0.097000 -0.424000
2.281000 0.095000 -0.417000
2.278000 0.094000 -0.409000
2.277000 0.093000 -0.401000
2.275000 0.091000 -0.393000
2.279000 0.090000 -0.387000
2.274000 0.088000 -0.379000
2.277000 0.087000 -0.372000
2.283000 0.086000 -0.365000
2.268000 0.059000 -0.039000
2.269000 0.065000 -0.043000
2.264000 0.052000 0.003000
2.264000 0.046000 0.047000
2.256000 0.051000 0.052000
2.259000 0.056000 0.058000
2.238000 0.029000 0.228000
2.238000 0.028000 0.220000
2.243000 0.027000 0.214000
2.252000 0.026000 0.207000
2.250000 0.025000 0.200000
2.553000 0.024000 -1.024000
2.517000 0.025000 -1.018000
2.458000 0.026000 -1.002000
2.401000 0.027000 -0.987000
2.357000 0.028000 -0.977000
2.335000 0.029000 -0.975000
2.334000 0.031000 -0.983000
2.271000 0.081000 -0.126000
2.274000 0.077000 -0.120000
2.269000 0.073000 -0.114000
2.268000 0.069000 -0.107000
2.271000 0.055000 -0.015000
2.264000 0.062000 -0.017000
2.264000 0.053000 0.021000
2.257000 0.037000 0.075000
2.255000 0.040000 0.081000
2.245000 0.043000 0.087000
2.247000 0.046000 0.094000
2.249000 0.049000 0.100000
2.267000 0.083000 -0.318000
2.267000 0.085000 -0.325000
2.270000 0.087000 -0.333000
2.273000 0.089000 -0.340000
2.268000 0.091000 -0.347000
2.265000 0.094000 -0.353000
2.265000 0.069000 -0.056000
2.267000 0.063000 -0.051000
2.265000 0.059000 0.002000
2.264000 0.048000 0.040000
2.248000 0.028000 0.207000
2.254000 0.029000 0.214000
2.234000 0.029000 0.220000
2.227000 0.030000 0.226000
2.244000 0.031000 0.235000
2.270000 0.064000 -0.106000
2.270000 0.068000 -0.112000
2.273000 0.072000 -0.118000
2.272000 0.076000 -0.124000
2.262000 0.060000 -0.023000
2.266000 0.058000 0.021000
2.256000 0.055000 0.088000
2.259000 0.051000 0.082000
2.252000 0.047000 0.075000
2.252000 0.043000 0.069000
2.256000 0.039000 0.063000
2.347000 0.014000 -1.018000
2.387000 0.015000 -1.027000
2.389000 0.016000 -1.020000
2.427000 0.027000 -0.962000
2.643000 0.032000 -1.021000
2.644000 0.033000 -1.013000
2.568000 0.034000 -0.966000
2.553000 0.035000 -0.951000
2.551000 0.036000 -0.942000
2.549000 0.036000 -0.933000
2.552000 0.037000 -0.926000
2.485000 0.038000 -0.884000
2.481000 0.038000 -0.874000
2.497000 0.039000 -0.872000
2.490000 0.040000 -0.860000
2.474000 0.041000 -0.838000
2.561000 0.043000 -0.859000
2.632000 0.044000 -0.874000
2.698000 0.046000 -0.887000
2.778000 0.048000 -0.904000
2.811000 0.049000 -0.905000
2.710000 0.048000 -0.863000
2.666000 0.048000 -0.840000
2.626000 0.047000 -0.819000
2.549000 0.046000 -0.786000
2.582000 0.047000 -0.787000
2.263000 0.062000 -0.053000
2.269000 0.067000 -0.058000
2.258000 0.055000 -0.003000
2.264000 0.049000 0.039000
2.265000 0.055000 0.043000
2.244000 0.059000 0.225000
2.258000 0.040000 0.156000
2.258000 0.038000 0.149000
2.254000 0.036000 0.142000
2.259000 0.034000 0.135000
2.258000 0.032000 0.128000
2.267000 0.030000 0.121000
2.272000 0.086000 -0.185000
2.273000 0.083000 -0.179000
2.272000 0.080000 -0.172000
2.274000 0.077000 -0.165000
2.269000 0.074000 -0.158000
2.265000 0.056000 -0.024000
2.267000 0.063000 -0.027000
2.264000 0.051000 0.013000
2.249000 0.044000 0.066000
2.254000 0.048000 0.072000
2.257000 0.052000 0.078000
2.254000 0.056000 0.084000
2.262000 -0.012000 0.225000
2.266000 0.073000 -0.077000
2.256000 0.068000 -0.072000
2.271000 0.063000 -0.067000
2.258000 0.055000 -0.004000
2.266000 0.063000 -0.005000
2.264000 0.049000 0.031000
2.268000 0.035000 0.128000
2.260000 0.037000 0.135000
2.252000 0.039000 0.141000
2.253000 0.041000 0.149000
2.256000 0.043000 0.156000
2.253000 0.044000 0.163000
2.252000 0.059000 0.220000
2.245000 0.060000 0.226000
2.269000 0.067000 -0.150000
2.269000 0.070000 -0.157000
2.258000 0.073000 -0.163000
2.261000 0.076000 -0.170000
2.265000 0.080000 -0.177000
2.271000 0.083000 -0.184000
2.269000 0.066000 -0.036000
2.271000 0.060000 -0.032000
2.264000 0.057000 0.013000
2.257000 0.054000 0.066000
2.262000 0.049000 0.060000
2.256000 0.044000 0.054000
2.270000 0.040000 0.049000
2.257000 -0.010000 0.208000
2.270000 -0.011000 0.224000
2.272000 -0.011000 0.232000
2.265000 0.062000 -0.069000
2.266000 0.067000 -0.075000
2.269000 0.072000 -0.080000
2.258000 0.057000 -0.010000
2.264000 0.051000 0.030000
2.266000 0.058000 0.034000
2.250000 0.044000 0.111000
2.255000 0.041000 0.105000
2.254000 0.038000 0.098000
2.240000 0.035000 0.090000
2.245000 0.033000 0.084000
2.261000 0.100000 -0.339000
2.271000 0.097000 -0.327000
2.276000 0.096000 -0.320000
2.266000 0.093000 -0.311000
2.273000 0.092000 -0.305000
2.273000 0.090000 -0.298000
2.268000 0.088000 -0.290000
2.262000 0.086000 -0.282000
2.270000 0.084000 -0.276000
2.267000 0.063000 -0.037000
2.258000 0.056000 0.007000
2.268000 0.049000 0.006000
2.263000 0.046000 0.052000
2.266000 0.051000 0.058000
2.258000 0.055000 0.063000
2.269000 0.060000 0.069000
2.248000 0.017000 0.233000
2.245000 0.016000 0.226000
2.418000 0.043000 -0.810000
2.383000 0.044000 -0.806000
2.390000 0.046000 -0.817000
2.410000 0.048000 -0.832000
2.416000 0.049000 -0.841000
2.268000 0.077000 -0.106000
2.272000 0.072000 -0.100000
2.268000 0.068000 -0.094000
2.258000 0.059000 -0.013000
2.271000 0.049000 0.023000
2.246000 0.036000 0.085000
2.247000 0.039000 0.092000
2.258000 0.042000 0.099000
2.259000 0.045000 0.106000
2.258000 0.048000 0.113000
2.271000 0.076000 -0.247000
2.281000 0.079000 -0.255000
2.278000 0.081000 -0.262000
2.277000 0.084000 -0.269000
2.276000 0.086000 -0.276000
2.270000 0.088000 -0.282000
2.273000 0.091000 -0.289000
2.265000 0.093000 -0.295000
2.263000 0.068000 -0.050000
2.263000 0.062000 -0.045000
2.262000 0.055000 0.005000
2.264000 0.048000 0.045000
2.266000 0.043000 0.040000
2.255000 0.018000 0.226000
2.260000 0.018000 0.234000
2.270000 0.063000 -0.092000
2.263000 0.067000 -0.098000
2.265000 0.071000 -0.104000
2.264000 0.059000 -0.019000
2.268000 0.052000 0.022000
2.272000 0.059000 0.025000
2.249000 0.052000 0.095000
2.254000 0.049000 0.089000
2.252000 0.045000 0.082000
2.246000 0.042000 0.076000
2.255000 0.038000 0.070000
2.636000 0.088000 -0.700000
2.263000 0.060000 -0.047000
2.267000 0.066000 -0.052000
2.264000 0.052000 0.000000
2.259000 0.049000 0.043000
2.271000 0.055000 0.048000
2.248000 0.047000 0.226000
2.246000 0.045000 0.218000
2.247000 0.038000 0.190000
2.254000 0.037000 0.183000
2.249000 0.035000 0.176000
2.249000 0.034000 0.169000
2.252000 0.032000 0.162000
2.259000 0.031000 0.155000
2.269000 0.084000 -0.158000
2.268000 0.081000 -0.151000
2.264000 0.077000 -0.144000
2.272000 0.074000 -0.138000
2.276000 0.071000 -0.132000
2.274000 0.067000 -0.126000
2.259000 0.060000 -0.022000
2.271000 0.067000 -0.024000
2.268000 0.055000 0.017000
2.271000 0.048000 0.015000
2.252000 0.042000 0.070000
2.248000 0.045000 0.076000
2.254000 0.049000 0.083000
2.253000 0.053000 0.089000
2.270000 -0.024000 0.230000
2.266000 -0.024000 0.222000
2.285000 0.080000 -0.420000
2.285000 0.082000 -0.428000
2.283000 0.084000 -0.435000
2.282000 0.086000 -0.442000
2.279000 0.087000 -0.449000
2.283000 0.090000 -0.457000
2.258000 0.070000 -0.066000
2.265000 0.064000 -0.061000
2.268000 0.058000 -0.002000
2.268000 0.052000 0.037000
2.268000 0.046000 0.033000
2.257000 0.034000 0.153000
2.255000 0.035000 0.160000
2.256000 0.037000 0.167000
2.245000 0.038000 0.173000
2.248000 0.039000 0.181000
2.255000 0.041000 0.189000
2.252000 0.042000 0.195000
2.254000 0.044000 0.203000
2.255000 0.045000 0.210000
2.249000 0.046000 0.217000
2.246000 0.048000 0.224000
2.251000 0.049000 0.231000
2.273000 0.062000 -0.122000
2.269000 0.065000 -0.129000
2.266000 0.069000 -0.135000
2.266000 0.072000 -0.142000
2.254000 0.075000 -0.147000
2.265000 0.079000 -0.155000
2.270000 0.066000 -0.031000
2.267000 0.059000 -0.028000
2.271000 0.057000 0.016000
2.258000 0.054000 0.073000
2.256000 0.050000 0.067000
2.252000 0.045000 0.061000
2.267000 0.041000 0.056000
2.272000 -0.022000 0.225000
2.273000 -0.023000 0.232000
2.265000 0.061000 -0.062000
2.266000 0.067000 -0.067000
2.266000 0.063000 -0.008000
2.264000 0.056000 -0.007000
2.258000 0.051000 0.034000
2.271000 0.058000 0.038000
2.262000 0.043000 0.127000
2.255000 0.040000 0.119000
2.254000 0.038000 0.112000
2.256000 0.035000 0.106000
2.258000 0.033000 0.099000
2.270000 0.089000 -0.243000
2.268000 0.086000 -0.235000
2.270000 0.084000 -0.229000
2.273000 0.082000 -0.222000
2.272000 0.079000 -0.215000
2.264000 0.059000 -0.030000
2.267000 0.065000 -0.034000
2.258000 0.055000 0.010000
2.272000 0.048000 0.008000
2.261000 0.047000 0.060000
2.258000 0.052000 0.066000
2.256000 0.056000 0.072000
2.270000 0.005000 0.229000
2.430000 0.059000 -0.681000
2.404000 0.060000 -0.682000
2.411000 0.062000 -0.692000
2.268000 0.077000 -0.096000
2.269000 0.073000 -0.091000
2.268000 0.068000 -0.085000
2.266000 0.060000 -0.010000
2.270000 0.048000 0.026000
2.266000 0.037000 0.101000
2.262000 0.039000 0.108000
2.263000 0.042000 0.115000
2.254000 0.044000 0.121000
2.261000 0.047000 0.128000
2.270000 0.072000 -0.201000
2.271000 0.075000 -0.208000
2.267000 0.077000 -0.214000
2.269000 0.080000 -0.221000
2.267000 0.083000 -0.228000
2.261000 0.085000 -0.234000
2.268000 0.088000 -0.242000
2.264000 0.065000 -0.043000
2.274000 0.060000 -0.039000
2.266000 0.054000 0.008000
2.272000 0.061000 0.009000
2.257000 0.047000 0.048000
2.270000 0.042000 0.043000
2.266000 0.006000 0.227000
2.269000 0.063000 -0.083000
2.263000 0.067000 -0.089000
2.263000 0.072000 -0.094000
2.271000 0.060000 -0.016000
2.271000 0.057000 0.028000
2.245000 0.051000 0.105000
2.246000 0.048000 0.098000
2.251000 0.044000 0.092000
2.250000 0.041000 0.085000
2.250000 0.038000 0.079000
2.250000 0.035000 0.072000
2.287000 0.091000 -0.460000
2.280000 0.090000 -0.451000
2.282000 0.089000 -0.444000
2.280000 0.088000 -0.436000
2.285000 0.087000 -0.429000
2.284000 0.086000 -0.422000
2.281000 0.084000 -0.414000
2.281000 0.083000 -0.406000
2.294000 0.077000 -0.364000
2.291000 0.075000 -0.356000
2.265000 0.062000 -0.043000
2.258000 0.053000 0.002000
2.268000 0.046000 0.045000
2.259000 0.051000 0.050000
2.241000 0.034000 0.222000
2.239000 0.032000 0.214000
2.247000 0.031000 0.208000
2.243000 0.030000 0.200000
2.247000 0.029000 0.193000
2.253000 0.028000 0.186000
2.331000 0.012000 -1.012000
2.293000 0.013000 -1.003000
2.250000 0.015000 -0.992000
2.252000 0.016000 -1.000000
2.254000 0.018000 -1.008000
2.262000 0.019000 -1.019000
2.266000 0.082000 -0.135000
2.260000 0.078000 -0.129000
2.269000 0.074000 -0.123000
2.272000 0.071000 -0.117000
2.272000 0.067000 -0.110000
2.259000 0.060000 -0.018000
2.270000 0.067000 -0.020000
2.269000 0.056000 0.021000
2.268000 0.049000 0.018000
2.254000 0.037000 0.071000
2.255000 0.041000 0.077000
2.251000 0.044000 0.084000
2.247000 0.047000 0.090000
2.252000 0.051000 0.097000
2.265000 0.080000 -0.339000
2.269000 0.082000 -0.346000
2.283000 0.084000 -0.356000
2.272000 0.086000 -0.361000
2.276000 0.088000 -0.369000
2.281000 0.090000 -0.377000
2.275000 0.092000 -0.383000
2.265000 0.069000 -0.059000
2.267000 0.064000 -0.054000
2.258000 0.056000 0.000000
2.261000 0.051000 0.041000
2.263000 0.045000 0.036000
2.254000 0.031000 0.189000
2.253000 0.032000 0.196000
2.255000 0.033000 0.204000
2.243000 0.034000 0.210000
2.243000 0.035000 0.217000
2.242000 0.036000 0.224000
2.272000 0.064000 -0.112000
2.269000 0.068000 -0.118000
2.272000 0.071000 -0.124000
2.269000 0.075000 -0.131000
2.270000 0.079000 -0.137000
2.258000 0.061000 -0.025000
2.264000 0.055000 0.019000
2.252000 0.055000 0.083000
2.250000 0.051000 0.077000
2.252000 0.047000 0.071000
2.258000 0.043000 0.065000
2.264000 0.039000 0.059000
2.270000 0.058000 -0.053000
2.265000 0.063000 -0.058000
2.269000 0.069000 -0.063000
2.260000 0.057000 -0.004000
2.268000 0.054000 0.040000
2.259000 0.040000 0.144000
2.256000 0.038000 0.137000
2.255000 0.036000 0.130000
2.257000 0.034000 0.123000
2.263000 0.032000 0.116000
2.273000 0.093000 -0.218000
2.262000 0.090000 -0.210000
2.263000 0.088000 -0.203000
2.273000 0.085000 -0.197000
2.268000 0.082000 -0.190000
2.269000 0.079000 -0.183000
2.267000 0.077000 -0.176000
2.274000 0.074000 -0.170000
2.262000 0.060000 -0.027000
2.266000 0.067000 -0.030000
2.264000 0.054000 0.012000
2.269000 0.047000 0.011000
2.250000 0.044000 0.062000
2.252000 0.048000 0.068000
2.254000 0.052000 0.074000
2.256000 0.056000 0.080000
2.262000 -0.006000 0.229000
2.268000 -0.006000 0.222000
2.256000 -0.006000 0.207000
2.263000 0.073000 -0.082000
2.262000 0.068000 -0.076000
2.266000 0.064000 -0.071000
2.264000 0.059000 -0.006000
2.268000 0.053000 0.032000
2.274000 0.047000 0.028000
2.270000 0.036000 0.118000
2.255000 0.038000 0.124000
2.251000 0.040000 0.131000
2.253000 0.042000 0.138000
2.253000 0.044000 0.145000
2.253000 0.066000 0.222000
2.251000 0.068000 0.229000
2.275000 0.071000 -0.170000
2.261000 0.073000 -0.176000
2.272000 0.077000 -0.183000
2.261000 0.079000 -0.189000
2.265000 0.083000 -0.196000
2.269000 0.086000 -0.203000
2.265000 0.061000 -0.035000
2.264000 0.054000 0.010000
2.273000 0.061000 0.012000
2.267000 0.049000 0.056000
2.261000 0.044000 0.051000
2.264000 -0.005000 0.227000
2.263000 0.062000 -0.074000
2.266000 0.067000 -0.079000
2.268000 0.072000 -0.085000
2.271000 0.061000 -0.013000
2.270000 0.053000 -0.011000
2.267000 0.055000 0.031000
2.246000 0.048000 0.114000
2.247000 0.045000 0.107000
2.251000 0.042000 0.100000
2.248000 0.039000 0.094000
2.247000 0.036000 0.087000
2.248000 0.034000 0.080000
2.283000 0.097000 -0.364000
2.275000 0.095000 -0.355000
2.270000 0.093000 -0.347000
2.267000 0.092000 -0.340000
2.271000 0.090000 -0.333000
2.268000 0.088000 -0.325000
2.276000 0.087000 -0.319000
2.279000 0.085000 -0.312000
2.268000 0.059000 -0.036000
2.269000 0.065000 -0.040000
2.264000 0.052000 0.005000
2.271000 0.049000 0.054000
2.262000 0.054000 0.059000
2.260000 0.059000 0.064000
2.227000 0.022000 0.228000
2.233000 0.022000 0.222000
2.495000 0.030000 -0.873000
2.587000 0.032000 -0.914000
2.406000 0.037000 -0.890000
2.390000 0.038000 -0.892000
2.376000 0.039000 -0.895000
2.373000 0.041000 -0.902000
2.382000 0.042000 -0.913000
2.410000 0.044000 -0.932000
2.525000 0.048000 -0.985000
2.264000 0.076000 -0.112000
2.270000 0.073000 -0.106000
2.268000 0.068000 -0.100000
2.263000 0.055000 -0.013000
2.266000 0.062000 -0.015000
2.258000 0.059000 -0.023000
2.270000 0.066000 -0.026000
2.270000 0.049000 0.014000
2.252000 0.044000 0.068000
2.254000 0.048000 0.075000
2.253000 0.051000 0.081000
2.256000 0.055000 0.087000
2.275000 -0.017000 0.225000
2.285000 0.073000 -0.451000
2.284000 0.075000 -0.458000
2.286000 0.077000 -0.466000
2.281000 0.078000 -0.473000
2.279000 0.080000 -0.480000
2.266000 0.074000 -0.074000
2.260000 0.068000 -0.069000
2.270000 0.063000 -0.064000
2.264000 0.057000 -0.003000
2.266000 0.048000 0.032000
2.266000 0.035000 0.137000
2.257000 0.036000 0.144000
2.255000 0.038000 0.151000
2.253000 0.040000 0.157000
2.257000 0.041000 0.165000
2.258000 0.043000 0.172000
2.252000 0.045000 0.179000
2.252000 0.054000 0.222000
2.246000 0.056000 0.228000
2.277000 0.067000 -0.143000
2.267000 0.070000 -0.149000
2.271000 0.074000 -0.156000
2.261000 0.077000 -0.162000
2.264000 0.080000 -0.169000
2.270000 0.066000 -0.034000
2.267000 0.060000 -0.031000
2.264000 0.057000 0.014000
2.258000 0.053000 0.067000
2.255000 0.048000 0.061000
2.256000 0.044000 0.056000
2.266000 0.039000 0.050000
2.254000 -0.014000 0.207000
2.273000 -0.015000 0.224000
2.263000 -0.016000 0.230000
2.269000 0.058000 -0.063000
2.265000 0.063000 -0.068000
2.264000 0.068000 -0.073000
2.260000 0.057000 -0.009000
2.264000 0.051000 0.032000
2.273000 0.057000 0.036000
2.263000 0.044000 0.120000
2.253000 0.042000 0.113000
2.251000 0.039000 0.106000
2.250000 0.036000 0.099000
2.245000 0.034000 0.092000
2.248000 0.031000 0.085000
2.276000 0.099000 -0.304000
2.273000 0.096000 -0.297000
2.275000 0.094000 -0.290000
2.278000 0.092000 -0.283000
2.270000 0.090000 -0.275000
2.274000 0.088000 -0.268000
2.273000 0.086000 -0.261000
2.280000 0.084000 -0.255000
2.269000 0.082000 -0.246000
2.270000 0.080000 -0.239000
2.265000 0.057000 -0.032000
2.265000 0.063000 -0.035000
2.264000 0.056000 0.008000
2.266000 0.049000 0.007000
2.262000 0.053000 0.023000
2.267000 0.046000 0.020000
2.252000 0.037000 0.081000
2.249000 0.040000 0.088000
2.258000 0.043000 0.095000
2.247000 0.046000 0.101000
2.254000 0.049000 0.108000
2.281000 0.078000 -0.274000
2.268000 0.080000 -0.280000
2.267000 0.083000 -0.287000
2.271000 0.085000 -0.294000
2.270000 0.087000 -0.301000
2.273000 0.090000 -0.309000
2.269000 0.092000 -0.315000
2.263000 0.070000 -0.054000
2.272000 0.065000 -0.049000
2.273000 0.059000 -0.045000
2.270000 0.059000 0.004000
2.263000 0.047000 0.042000
2.243000 0.023000 0.221000
2.240000 0.023000 0.228000
2.247000 0.024000 0.236000
2.269000 0.063000 -0.097000
2.265000 0.067000 -0.103000
2.263000 0.071000 -0.109000
2.266000 0.075000 -0.115000
2.257000 0.061000 -0.021000
2.273000 0.057000 0.023000
2.252000 0.052000 0.090000
2.246000 0.048000 0.083000
2.246000 0.045000 0.077000
2.251000 0.041000 0.071000
2.254000 0.037000 0.065000
2.437000 0.067000 -0.717000
2.459000 0.068000 -0.716000
2.432000 0.067000 -0.700000
2.405000 0.066000 -0.684000
2.399000 0.066000 -0.674000
2.384000 0.066000 -0.662000
2.388000 0.066000 -0.655000
2.401000 0.066000 -0.650000
2.416000 0.066000 -0.646000
2.455000 0.067000 -0.648000
2.269000 0.057000 -0.047000
2.263000 0.063000 -0.051000
2.271000 0.069000 -0.056000
2.257000 0.055000 -0.001000
2.264000 0.048000 0.040000
2.269000 0.054000 0.045000
2.247000 0.052000 0.228000
2.250000 0.051000 0.221000
2.250000 0.040000 0.178000
2.255000 0.038000 0.172000
2.247000 0.036000 0.164000
2.255000 0.035000 0.157000
2.256000 0.033000 0.150000
2.265000 0.032000 0.144000
2.261000 0.030000 0.137000
2.274000 0.086000 -0.170000
2.258000 0.082000 -0.162000
2.266000 0.079000 -0.156000
2.270000 0.076000 -0.150000
2.272000 0.073000 -0.143000
2.273000 0.070000 -0.137000
2.271000 0.057000 -0.022000
2.265000 0.064000 -0.024000
2.268000 0.051000 0.015000
2.255000 0.042000 0.067000
2.247000 0.045000 0.073000
2.254000 0.049000 0.079000
2.258000 0.053000 0.086000
2.272000 -0.019000 0.226000
2.273000 -0.019000 0.219000
2.285000 0.078000 -0.449000
2.283000 0.080000 -0.455000
2.278000 0.081000 -0.462000
2.281000 0.083000 -0.470000
2.270000 0.076000 -0.075000
2.262000 0.071000 -0.070000
2.267000 0.065000 -0.065000
2.260000 0.055000 -0.003000
2.268000 0.048000 0.033000
2.262000 0.035000 0.143000
2.254000 0.036000 0.150000
2.257000 0.038000 0.157000
2.251000 0.039000 0.164000
2.252000 0.041000 0.171000
2.253000 0.043000 0.179000
2.247000 0.044000 0.185000
2.247000 0.052000 0.221000
2.243000 0.053000 0.228000
2.270000 0.065000 -0.135000
2.268000 0.069000 -0.141000
2.260000 0.072000 -0.147000
2.271000 0.075000 -0.155000
2.267000 0.079000 -0.161000
2.267000 0.060000 -0.030000
2.272000 0.049000 0.013000
2.268000 0.056000 0.015000
2.260000 0.056000 0.073000
2.254000 0.052000 0.067000
2.250000 0.047000 0.061000
2.263000 0.043000 0.056000
2.256000 -0.016000 0.208000
2.272000 -0.018000 0.224000
2.268000 -0.019000 0.231000
2.271000 0.059000 -0.062000
2.267000 0.064000 -0.067000
2.266000 0.069000 -0.073000
2.258000 0.057000 -0.008000
2.264000 0.051000 0.032000
2.271000 0.057000 0.037000
2.258000 0.042000 0.119000
2.253000 0.040000 0.112000
2.249000 0.037000 0.105000
2.254000 0.035000 0.099000
2.247000 0.032000 0.092000
2.247000 0.030000 0.085000
2.280000 0.098000 -0.288000
2.283000 0.094000 -0.274000
2.280000 0.091000 -0.267000
2.277000 0.089000 -0.259000
2.270000 0.087000 -0.251000
2.265000 0.084000 -0.244000
2.275000 0.082000 -0.238000
2.275000 0.080000 -0.231000
2.266000 0.058000 -0.031000
2.265000 0.065000 -0.035000
2.258000 0.055000 0.008000
2.273000 0.045000 0.055000
2.256000 0.049000 0.060000
2.262000 0.054000 0.066000
2.257000 0.058000 0.071000
2.264000 0.009000 0.228000
2.428000 0.055000 -0.723000
2.400000 0.055000 -0.723000
2.424000 0.057000 -0.738000
2.505000 0.061000 -0.771000
2.261000 0.075000 -0.097000
2.274000 0.071000 -0.092000
2.272000 0.067000 -0.086000
2.266000 0.060000 -0.011000
2.266000 0.054000 0.027000
2.269000 0.048000 0.024000
2.254000 0.036000 0.094000
2.264000 0.039000 0.101000
2.264000 0.042000 0.108000
2.254000 0.044000 0.115000
2.260000 0.047000 0.122000
2.266000 0.077000 -0.223000
2.256000 0.079000 -0.229000
2.266000 0.082000 -0.237000
2.269000 0.085000 -0.244000
2.268000 0.087000 -0.251000
2.270000 0.064000 -0.043000
2.274000 0.058000 -0.039000
2.264000 0.055000 0.007000
2.258000 0.046000 0.047000
2.264000 0.010000 0.228000
2.270000 0.062000 -0.085000
2.266000 0.066000 -0.090000
2.261000 0.071000 -0.096000
2.263000 0.075000 -0.102000
2.260000 0.059000 -0.017000
2.266000 0.052000 0.024000
2.274000 0.058000 0.027000
2.251000 0.052000 0.102000
2.259000 0.049000 0.096000
2.254000 0.045000 0.090000
2.251000 0.042000 0.083000
2.245000 0.039000 0.076000
2.252000 0.035000 0.070000
2.288000 0.085000 -0.474000
2.281000 0.084000 -0.465000
2.277000 0.083000 -0.457000
2.289000 0.082000 -0.452000
2.287000 0.081000 -0.444000
2.265000 0.057000 -0.041000
2.265000 0.063000 -0.046000
2.264000 0.058000 0.001000
2.273000 0.051000 0.001000
2.256000 0.049000 0.046000
2.268000 0.054000 0.051000
2.252000 0.038000 0.226000
2.247000 0.037000 0.219000
2.246000 0.036000 0.211000
2.246000 0.034000 0.204000
2.245000 0.033000 0.197000
2.248000 0.031000 0.190000
2.251000 0.030000 0.183000
2.255000 0.029000 0.176000
2.229000 0.007000 -1.030000
2.266000 0.082000 -0.141000
2.270000 0.078000 -0.135000
2.272000 0.075000 -0.128000
2.269000 0.071000 -0.122000
2.273000 0.067000 -0.115000
2.262000 0.062000 -0.020000
2.262000 0.053000 0.019000
2.255000 0.040000 0.073000
2.252000 0.043000 0.079000
2.249000 0.047000 0.086000
2.252000 0.050000 0.092000
2.271000 -0.032000 0.227000
2.277000 -0.031000 0.221000
2.284000 0.076000 -0.346000
2.290000 0.078000 -0.355000
2.283000 0.081000 -0.368000
2.275000 0.083000 -0.374000
2.275000 0.085000 -0.381000
2.277000 0.087000 -0.389000
2.275000 0.089000 -0.396000
2.265000 0.091000 -0.401000
2.270000 0.071000 -0.063000
2.263000 0.065000 -0.057000
2.265000 0.060000 -0.053000
2.266000 0.053000 0.000000
2.271000 0.061000 0.000000
2.262000 0.049000 0.037000
2.259000 0.032000 0.178000
2.249000 0.033000 0.185000
2.250000 0.034000 0.192000
2.245000 0.035000 0.199000
2.243000 0.037000 0.206000
2.246000 0.038000 0.213000
2.244000 0.039000 0.220000
2.271000 0.064000 -0.116000
2.271000 0.067000 -0.122000
2.267000 0.071000 -0.128000
2.263000 0.075000 -0.135000
2.267000 0.078000 -0.141000
2.267000 0.065000 -0.028000
2.270000 0.058000 -0.025000
2.268000 0.052000 0.017000
2.267000 0.059000 0.019000
2.255000 0.054000 0.079000
2.260000 0.050000 0.073000
2.256000 0.046000 0.067000
2.261000 0.042000 0.061000
2.279000 -0.031000 0.227000
2.272000 0.060000 -0.057000
2.267000 0.066000 -0.062000
2.268000 0.061000 -0.005000
2.268000 0.053000 -0.005000
2.272000 0.047000 0.034000
2.264000 0.052000 0.038000
2.261000 0.041000 0.139000
2.259000 0.039000 0.132000
2.250000 0.037000 0.124000
2.260000 0.035000 0.118000
2.268000 0.033000 0.111000
2.264000 0.091000 -0.221000
2.271000 0.088000 -0.215000
2.270000 0.086000 -0.208000
2.263000 0.083000 -0.200000
2.268000 0.080000 -0.194000
2.266000 0.078000 -0.187000
2.274000 0.075000 -0.181000
2.270000 0.057000 -0.027000
2.269000 0.064000 -0.030000
2.268000 0.050000 0.011000
2.260000 0.044000 0.060000
2.253000 0.048000 0.065000
2.256000 0.052000 0.072000
2.259000 0.056000 0.078000
2.261000 -0.003000 0.231000
2.261000 -0.003000 0.223000
2.253000 -0.003000 0.208000
2.688000 0.086000 -0.713000
2.693000 0.088000 -0.723000
2.266000 0.078000 -0.089000
2.272000 0.073000 -0.084000
2.262000 0.068000 -0.078000
2.264000 0.063000 -0.073000
2.262000 0.058000 -0.007000
2.268000 0.049000 0.028000
2.269000 0.037000 0.115000
2.254000 0.039000 0.121000
2.249000 0.041000 0.128000
2.262000 0.043000 0.135000
2.262000 0.046000 0.142000
2.276000 0.070000 -0.176000
2.269000 0.073000 -0.182000
2.260000 0.076000 -0.188000
2.256000 0.078000 -0.195000
2.258000 0.081000 -0.202000
2.262000 0.085000 -0.209000
2.264000 0.088000 -0.216000
2.263000 0.062000 -0.037000
2.271000 0.059000 0.011000
2.265000 0.051000 0.057000
2.258000 0.046000 0.052000
2.270000 0.041000 0.046000
2.269000 -0.002000 0.226000
2.270000 -0.002000 0.234000
2.270000 0.061000 -0.074000
2.269000 0.065000 -0.079000
2.269000 0.070000 -0.085000
2.269000 0.075000 -0.091000
2.269000 0.062000 -0.014000
2.267000 0.054000 -0.012000
2.268000 0.055000 0.030000
2.248000 0.050000 0.114000
2.250000 0.047000 0.107000
2.245000 0.044000 0.100000
2.251000 0.041000 0.094000
2.243000 0.038000 0.087000
2.247000 0.035000 0.081000
2.248000 0.032000 0.074000
2.283000 0.098000 -0.396000
2.269000 0.095000 -0.386000
2.278000 0.094000 -0.380000
2.282000 0.093000 -0.374000
2.273000 0.091000 -0.365000
2.274000 0.090000 -0.358000
2.279000 0.088000 -0.351000
2.266000 0.086000 -0.342000
2.272000 0.085000 -0.336000
2.270000 0.058000 -0.037000
2.268000 0.064000 -0.041000
2.258000 0.053000 0.004000
2.269000 0.049000 0.052000
2.262000 0.054000 0.057000
2.235000 0.026000 0.229000
2.231000 0.025000 0.222000
2.246000 0.024000 0.216000
2.253000 0.023000 0.209000
2.364000 0.033000 -0.930000
2.346000 0.034000 -0.931000
2.357000 0.035000 -0.943000
2.374000 0.037000 -0.958000
2.387000 0.039000 -0.971000
2.427000 0.041000 -0.995000
2.272000 0.079000 -0.120000
2.267000 0.075000 -0.114000
2.268000 0.071000 -0.107000
2.269000 0.067000 -0.101000
2.260000 0.060000 -0.015000
2.266000 0.048000 0.020000
2.254000 0.037000 0.078000
2.252000 0.040000 0.085000
2.250000 0.043000 0.092000
2.244000 0.046000 0.098000
2.244000 0.049000 0.105000
2.265000 0.082000 -0.300000
2.274000 0.084000 -0.308000
2.265000 0.086000 -0.314000
2.263000 0.088000 -0.321000
2.262000 0.091000 -0.327000
2.269000 0.093000 -0.336000
2.265000 0.095000 -0.342000
2.272000 0.066000 -0.052000
2.273000 0.060000 -0.047000
2.262000 0.056000 0.003000
2.264000 0.049000 0.043000
2.266000 0.044000 0.038000
2.243000 0.026000 0.218000
2.240000 0.026000 0.225000
2.241000 0.027000 0.233000
2.269000 0.064000 -0.103000
2.257000 0.068000 -0.108000
2.264000 0.072000 -0.115000
2.259000 0.063000 -0.023000
2.272000 0.056000 -0.020000
2.264000 0.055000 0.021000
2.254000 0.055000 0.092000
2.255000 0.051000 0.085000
2.253000 0.048000 0.079000
2.247000 0.044000 0.073000
2.256000 0.040000 0.067000
2.237000 0.004000 -1.099000
2.239000 0.006000 -1.093000
2.316000 0.017000 -1.077000
2.305000 0.018000 -1.065000
2.328000 0.020000 -1.067000
2.318000 0.021000 -1.055000
2.288000 0.022000 -1.033000
2.312000 0.023000 -1.037000
2.323000 0.025000 -1.034000
2.324000 0.026000 -1.026000
2.324000 0.027000 -1.019000
2.337000 0.028000 -1.016000
2.334000 0.030000 -1.007000
2.333000 0.031000 -0.999000
2.334000 0.032000 -0.992000
2.338000 0.033000 -0.986000
2.341000 0.034000 -0.979000
2.343000 0.035000 -0.972000
2.342000 0.036000 -0.963000
2.348000 0.037000 -0.958000
2.368000 0.038000 -0.958000
2.393000 0.040000 -0.960000
2.396000 0.041000 -0.954000
2.394000 0.041000 -0.945000
2.381000 0.042000 -0.931000
2.371000 0.043000 -0.919000
2.374000 0.044000 -0.912000
2.385000 0.045000 -0.908000
2.400000 0.045000 -0.906000
2.418000 0.047000 -0.905000
2.403000 0.047000 -0.891000
2.405000 0.048000 -0.883000
2.402000 0.048000 -0.874000
2.405000 0.049000 -0.867000
2.408000 0.049000 -0.860000
2.392000 0.050000 -0.846000
2.394000 0.050000 -0.839000
2.442000 0.052000 -0.839000
2.423000 0.052000 -0.824000
2.407000 0.052000 -0.811000
2.399000 0.053000 -0.800000
2.392000 0.053000 -0.789000
2.383000 0.053000 -0.778000
2.398000 0.054000 -0.775000
2.401000 0.054000 -0.768000
2.389000 0.054000 -0.756000
2.391000 0.054000 -0.749000
2.384000 0.054000 -0.738000
2.378000 0.055000 -0.728000
2.390000 0.055000 -0.724000
2.436000 0.056000 -0.722000
2.458000 0.057000 -0.720000
2.468000 0.057000 -0.715000
2.750000 0.064000 -0.750000
2.775000 0.065000 -0.747000
2.263000 0.060000 -0.050000
2.270000 0.066000 -0.055000
2.260000 0.057000 -0.002000
2.270000 0.050000 -0.002000
2.263000 0.052000 0.042000
2.243000 0.057000 0.229000
2.245000 0.055000 0.222000
2.253000 0.040000 0.166000
2.254000 0.038000 0.159000
2.251000 0.036000 0.152000
2.256000 0.034000 0.145000
2.257000 0.032000 0.138000
2.266000 0.031000 0.132000
2.272000 0.087000 -0.180000
2.264000 0.084000 -0.173000
2.269000 0.081000 -0.167000
2.270000 0.078000 -0.160000
2.265000 0.075000 -0.153000
2.269000 0.072000 -0.147000
2.258000 0.061000 -0.024000
2.264000 0.054000 0.015000
2.271000 0.047000 0.013000
2.253000 0.041000 0.064000
2.248000 0.045000 0.070000
2.254000 0.049000 0.076000
2.254000 0.053000 0.082000
2.268000 -0.016000 0.229000
2.266000 -0.015000 0.222000
2.284000 0.071000 -0.454000
2.279000 0.073000 -0.460000
2.279000 0.074000 -0.468000
2.297000 0.077000 -0.479000
2.293000 0.078000 -0.485000
2.267000 0.077000 -0.079000
2.262000 0.071000 -0.073000
2.261000 0.066000 -0.068000
2.266000 0.060000 -0.004000
2.264000 0.051000 0.034000
2.266000 0.045000 0.030000
2.266000 0.035000 0.133000
2.259000 0.036000 0.139000
2.259000 0.038000 0.147000
2.257000 0.040000 0.154000
2.255000 0.041000 0.161000
2.257000 0.043000 0.168000
2.259000 0.045000 0.175000
2.245000 0.056000 0.224000
2.254000 0.058000 0.232000
2.274000 0.068000 -0.146000
2.267000 0.071000 -0.153000
2.266000 0.074000 -0.159000
2.261000 0.077000 -0.165000
2.269000 0.081000 -0.173000
2.271000 0.070000 -0.036000
2.257000 0.063000 -0.033000
2.275000 0.057000 -0.030000
2.268000 0.053000 0.013000
2.272000 0.060000 0.014000
2.265000 0.056000 0.070000
2.252000 0.051000 0.064000
2.255000 0.046000 0.058000
2.262000 0.042000 0.053000
2.252000 -0.013000 0.210000
2.274000 -0.014000 0.227000
2.272000 0.060000 -0.066000
2.261000 0.065000 -0.071000
2.266000 0.070000 -0.076000
2.260000 0.061000 -0.010000
2.266000 0.054000 -0.009000
2.272000 0.048000 0.029000
2.258000 0.053000 0.033000
2.258000 0.044000 0.117000
2.256000 0.041000 0.110000
2.254000 0.038000 0.103000
2.248000 0.036000 0.096000
2.247000 0.033000 0.089000
2.249000 0.030000 0.082000
2.273000 0.098000 -0.309000
2.274000 0.096000 -0.301000
2.271000 0.094000 -0.294000
2.275000 0.092000 -0.287000
2.276000 0.090000 -0.280000
2.266000 0.088000 -0.272000
2.277000 0.086000 -0.266000
2.282000 0.084000 -0.260000
2.280000 0.082000 -0.252000
2.272000 0.080000 -0.244000
2.267000 0.060000 -0.033000
2.271000 0.066000 -0.037000
2.258000 0.053000 0.007000
2.263000 0.046000 0.055000
2.261000 0.051000 0.060000
2.252000 0.056000 0.066000
2.267000 0.061000 0.072000
2.254000 0.013000 0.233000
2.252000 0.013000 0.225000
2.439000 0.046000 -0.752000
2.430000 0.047000 -0.758000
2.412000 0.048000 -0.760000
2.400000 0.049000 -0.765000
2.411000 0.051000 -0.776000
2.404000 0.052000 -0.782000
2.267000 0.077000 -0.104000
2.268000 0.073000 -0.098000
2.266000 0.069000 -0.092000
2.266000 0.054000 -0.011000
2.268000 0.061000 -0.012000
2.266000 0.053000 0.026000
2.272000 0.047000 0.023000
2.249000 0.036000 0.088000
2.253000 0.039000 0.095000
2.261000 0.041000 0.102000
2.259000 0.044000 0.108000
2.261000 0.047000 0.115000
2.263000 0.050000 0.122000
2.271000 0.076000 -0.233000
2.269000 0.078000 -0.240000
2.268000 0.081000 -0.246000
2.267000 0.083000 -0.253000
2.278000 0.086000 -0.262000
2.284000 0.089000 -0.269000
2.270000 0.069000 -0.048000
2.276000 0.063000 -0.044000
2.266000 0.057000 0.006000
2.264000 0.046000 0.045000
2.265000 0.014000 0.229000
2.267000 0.066000 -0.093000
2.261000 0.070000 -0.099000
2.269000 0.074000 -0.105000
2.262000 0.064000 -0.019000
2.270000 0.057000 -0.017000
2.265000 0.054000 0.024000
2.252000 0.053000 0.100000
2.252000 0.050000 0.094000
2.250000 0.046000 0.087000
2.252000 0.043000 0.081000
2.251000 0.039000 0.075000
2.251000 0.036000 0.068000
2.282000 0.075000 -0.458000
2.276000 0.074000 -0.450000
2.270000 0.073000 -0.441000
2.269000 0.057000 -0.043000
2.263000 0.063000 -0.047000
2.262000 0.058000 0.000000
2.271000 0.051000 0.000000
2.256000 0.050000 0.045000
2.272000 0.055000 0.050000
2.247000 0.042000 0.225000
2.253000 0.041000 0.219000
2.250000 0.038000 0.204000
2.251000 0.036000 0.197000
2.251000 0.035000 0.190000
2.249000 0.033000 0.182000
2.248000 0.032000 0.175000
2.255000 0.030000 0.168000
2.257000 0.029000 0.161000
2.230000 -0.001000 -1.074000
2.233000 0.000000 -1.083000
2.239000 0.001000 -1.093000
2.269000 0.083000 -0.149000
2.271000 0.080000 -0.142000
2.264000 0.076000 -0.136000
2.269000 0.072000 -0.129000
2.267000 0.069000 -0.123000
2.276000 0.066000 -0.117000
2.262000 0.062000 -0.021000
2.262000 0.053000 0.018000
2.256000 0.041000 0.073000
2.253000 0.045000 0.079000
2.252000 0.049000 0.086000
2.253000 0.052000 0.092000
2.270000 -0.028000 0.228000
2.276000 -0.028000 0.221000
2.276000 0.079000 -0.383000
2.271000 0.080000 -0.389000
2.280000 0.083000 -0.398000
2.284000 0.085000 -0.406000
2.273000 0.086000 -0.411000
2.274000 0.088000 -0.419000
2.279000 0.090000 -0.427000
2.279000 0.092000 -0.434000
2.261000 0.070000 -0.064000
2.267000 0.065000 -0.059000
2.262000 0.053000 0.000000
2.271000 0.060000 -0.001000
2.262000 0.049000 0.036000
2.260000 0.033000 0.163000
2.253000 0.034000 0.170000
2.257000 0.035000 0.178000
2.244000 0.037000 0.184000
2.245000 0.038000 0.191000
2.246000 0.039000 0.198000
2.245000 0.040000 0.205000
2.247000 0.042000 0.213000
2.250000 0.043000 0.220000
2.254000 0.044000 0.228000
2.273000 0.062000 -0.117000
2.267000 0.065000 -0.123000
2.260000 0.068000 -0.129000
2.266000 0.072000 -0.136000
2.260000 0.075000 -0.142000
2.271000 0.079000 -0.149000
2.263000 0.064000 -0.029000
2.270000 0.058000 -0.026000
2.266000 0.052000 0.016000
2.272000 0.060000 0.018000
2.249000 0.055000 0.078000
2.255000 0.051000 0.072000
2.253000 0.047000 0.066000
2.255000 0.043000 0.060000
2.269000 0.039000 0.055000
2.280000 -0.027000 0.228000
2.271000 0.059000 -0.057000
2.262000 0.064000 -0.062000
2.270000 0.069000 -0.068000
2.264000 0.062000 -0.007000
2.268000 0.054000 -0.006000
2.265000 0.052000 0.036000
2.258000 0.042000 0.132000
2.255000 0.039000 0.125000
2.253000 0.037000 0.117000
2.258000 0.035000 0.111000
2.263000 0.033000 0.104000
2.269000 0.092000 -0.238000
2.273000 0.089000 -0.231000
2.269000 0.087000 -0.224000
2.270000 0.084000 -0.217000
2.265000 0.082000 -0.210000
2.268000 0.079000 -0.203000
2.267000 0.077000 -0.196000
2.265000 0.062000 -0.031000
2.268000 0.051000 0.010000
2.259000 0.044000 0.058000
2.252000 0.048000 0.064000
2.255000 0.053000 0.070000
2.261000 0.058000 0.076000
2.261000 0.001000 0.225000
2.402000 0.065000 -0.645000
2.399000 0.066000 -0.652000
2.266000 0.077000 -0.092000
2.270000 0.072000 -0.087000
2.273000 0.068000 -0.081000
2.262000 0.056000 -0.008000
2.272000 0.064000 -0.009000
2.264000 0.050000 0.028000
2.268000 0.037000 0.106000
2.261000 0.039000 0.112000
2.264000 0.041000 0.120000
2.255000 0.043000 0.126000
2.266000 0.046000 0.134000
2.272000 0.072000 -0.190000
2.265000 0.074000 -0.196000
2.258000 0.077000 -0.202000
2.266000 0.080000 -0.210000
2.262000 0.083000 -0.216000
2.257000 0.085000 -0.222000
2.269000 0.089000 -0.230000
2.273000 0.063000 -0.039000
2.270000 0.058000 0.009000
2.264000 0.048000 0.051000
2.266000 0.043000 0.046000
2.255000 0.003000 0.209000
2.263000 0.002000 0.225000
2.264000 0.002000 0.232000
2.269000 0.063000 -0.080000
2.262000 0.067000 -0.085000
2.266000 0.072000 -0.091000
2.257000 0.063000 -0.015000
2.264000 0.056000 -0.014000
2.272000 0.048000 0.025000
2.262000 0.054000 0.028000
2.244000 0.050000 0.107000
2.245000 0.047000 0.100000
2.250000 0.044000 0.094000
2.250000 0.041000 0.087000
2.253000 0.038000 0.081000
2.250000 0.034000 0.074000
2.283000 0.095000 -0.436000
2.288000 0.094000 -0.430000
2.281000 0.093000 -0.421000
2.279000 0.091000 -0.413000
2.276000 0.090000 -0.405000
2.277000 0.089000 -0.398000
2.274000 0.087000 -0.390000
2.280000 0.086000 -0.384000
2.283000 0.085000 -0.377000
2.284000 0.084000 -0.370000
2.290000 0.081000 -0.356000
2.283000 0.080000 -0.347000
2.263000 0.062000 -0.041000
2.272000 0.068000 -0.046000
2.265000 0.055000 0.003000
2.268000 0.050000 0.050000
2.266000 0.055000 0.055000
2.235000 0.030000 0.222000
2.241000 0.029000 0.216000
2.247000 0.028000 0.209000
2.248000 0.027000 0.202000
2.255000 0.026000 0.195000
2.348000 0.024000 -0.994000
2.291000 0.025000 -0.978000
2.300000 0.027000 -0.989000
2.344000 0.029000 -1.016000
2.401000 0.031000 -1.049000
2.480000 0.034000 -1.091000
2.270000 0.081000 -0.129000
2.256000 0.077000 -0.122000
2.266000 0.073000 -0.116000
2.261000 0.069000 -0.109000
2.270000 0.044000 0.053000
2.261000 0.049000 0.058000
2.258000 0.053000 0.064000
2.260000 0.058000 0.069000
2.257000 0.012000 0.229000
2.390000 0.049000 -0.734000
2.393000 0.050000 -0.743000
2.396000 0.052000 -0.752000
2.444000 0.056000 -0.783000
2.472000 0.058000 -0.800000
2.543000 0.061000 -0.832000
2.262000 0.075000 -0.099000
2.256000 0.071000 -0.093000
2.276000 0.067000 -0.088000
2.278000 0.059000 -0.011000
2.264000 0.049000 0.024000
2.251000 0.034000 0.085000
2.257000 0.037000 0.092000
2.264000 0.040000 0.099000
2.260000 0.042000 0.106000
2.253000 0.045000 0.112000
2.265000 0.048000 0.120000
2.274000 0.076000 -0.230000
2.261000 0.078000 -0.235000
2.267000 0.081000 -0.243000
2.267000 0.084000 -0.250000
2.278000 0.087000 -0.258000
2.287000 0.089000 -0.266000
2.259000 0.065000 -0.045000
2.275000 0.060000 -0.041000
2.268000 0.053000 0.006000
2.272000 0.060000 0.007000
2.263000 0.049000 0.048000
2.268000 0.044000 0.043000
2.262000 0.013000 0.225000
2.263000 0.013000 0.232000
2.269000 0.064000 -0.089000
2.261000 0.068000 -0.095000
2.265000 0.072000 -0.101000
2.271000 0.061000 -0.018000
2.276000 0.055000 -0.016000
2.268000 0.056000 0.025000
2.246000 0.051000 0.099000
2.252000 0.048000 0.092000
2.251000 0.045000 0.086000
2.247000 0.041000 0.079000
2.249000 0.038000 0.073000
2.254000 0.035000 0.067000
2.289000 0.079000 -0.472000
2.289000 0.078000 -0.465000
2.285000 0.077000 -0.456000
2.283000 0.076000 -0.448000
2.269000 0.059000 -0.044000
2.270000 0.065000 -0.048000
2.273000 0.055000 0.001000
2.259000 0.051000 0.047000
2.245000 0.041000 0.223000
2.248000 0.039000 0.216000
2.248000 0.038000 0.209000
2.246000 0.036000 0.201000
2.250000 0.035000 0.195000
2.245000 0.033000 0.187000
2.251000 0.032000 0.180000
2.252000 0.030000 0.173000
2.255000 0.029000 0.166000
2.239000 0.001000 -1.066000
2.248000 0.003000 -1.078000
2.246000 0.005000 -1.084000
2.270000 0.059000 -0.017000
2.264000 0.066000 -0.019000
2.268000 0.049000 0.019000
2.258000 0.036000 0.071000
2.248000 0.039000 0.078000
2.251000 0.042000 0.084000
2.247000 0.045000 0.091000
2.242000 0.049000 0.097000
2.251000 0.052000 0.104000
2.271000 0.082000 -0.324000
2.273000 0.084000 -0.331000
2.274000 0.086000 -0.339000
2.269000 0.088000 -0.345000
2.274000 0.090000 -0.353000
2.272000 0.092000 -0.360000
2.270000 0.070000 -0.058000
2.259000 0.064000 -0.053000
2.274000 0.059000 -0.048000
2.262000 0.057000 0.001000
2.264000 0.050000 0.041000
2.272000 0.045000 0.037000
2.251000 0.029000 0.204000
2.256000 0.030000 0.212000
2.243000 0.031000 0.218000
2.230000 0.031000 0.224000
2.245000 0.033000 0.233000
2.268000 0.066000 -0.110000
2.268000 0.070000 -0.117000
2.269000 0.074000 -0.123000
2.257000 0.062000 -0.024000
2.271000 0.055000 -0.022000
2.264000 0.055000 0.020000
2.252000 0.053000 0.084000
2.255000 0.049000 0.078000
2.251000 0.045000 0.071000
2.255000 0.041000 0.065000
2.427000 0.011000 -1.023000
2.274000 0.060000 -0.052000
2.263000 0.065000 -0.057000
2.257000 0.057000 -0.003000
2.270000 0.050000 -0.003000
2.267000 0.054000 0.042000
2.249000 0.062000 0.227000
2.248000 0.059000 0.220000
2.260000 0.039000 0.151000
2.255000 0.037000 0.143000
2.254000 0.035000 0.136000
2.261000 0.033000 0.129000
2.266000 0.032000 0.123000
2.272000 0.088000 -0.195000
2.269000 0.085000 -0.187000
2.271000 0.082000 -0.181000
2.276000 0.080000 -0.174000
2.277000 0.077000 -0.168000
2.270000 0.073000 -0.160000
2.261000 0.061000 -0.026000
2.264000 0.053000 0.013000
2.258000 0.044000 0.064000
2.253000 0.048000 0.070000
2.257000 0.052000 0.076000
2.259000 0.056000 0.083000
2.270000 -0.010000 0.228000
2.262000 0.073000 -0.079000
2.262000 0.068000 -0.073000
2.266000 0.063000 -0.068000
2.264000 0.054000 -0.005000
2.271000 0.062000 -0.005000
2.262000 0.051000 0.032000
2.270000 0.045000 0.028000
2.260000 0.036000 0.126000
2.260000 0.038000 0.133000
2.252000 0.040000 0.140000
2.257000 0.042000 0.147000
2.261000 0.044000 0.154000
2.246000 0.062000 0.224000
2.254000 0.064000 0.232000
2.274000 0.069000 -0.157000
2.267000 0.071000 -0.163000
2.267000 0.074000 -0.169000
2.272000 0.078000 -0.177000
2.272000 0.081000 -0.183000
2.272000 0.067000 -0.037000
2.267000 0.060000 -0.033000
2.265000 0.055000 0.012000
2.253000 0.051000 0.061000
2.255000 0.046000 0.056000
2.263000 0.042000 0.050000
2.266000 -0.009000 0.222000
2.272000 -0.009000 0.230000
2.266000 0.060000 -0.069000
2.262000 0.065000 -0.074000
2.264000 0.070000 -0.080000
2.255000 0.058000 -0.011000
2.268000 0.050000 0.030000
2.266000 0.057000 0.033000
2.251000 0.045000 0.112000
2.250000 0.042000 0.106000
2.251000 0.039000 0.099000
2.249000 0.037000 0.092000
2.243000 0.034000 0.085000
2.253000 0.031000 0.079000
2.275000 0.101000 -0.351000
2.268000 0.099000 -0.343000
2.274000 0.098000 -0.337000
2.273000 0.096000 -0.329000
2.271000 0.094000 -0.322000
2.269000 0.092000 -0.314000
2.272000 0.090000 -0.307000
2.267000 0.088000 -0.300000
2.268000 0.086000 -0.292000
2.269000 0.085000 -0.285000
2.292000 0.082000 -0.274000
2.265000 0.061000 -0.036000
2.263000 0.050000 0.006000
2.272000 0.045000 0.051000
2.263000 0.049000 0.056000
2.258000 0.054000 0.061000
2.266000 0.059000 0.067000
2.245000 0.019000 0.235000
2.237000 0.018000 0.227000
2.246000 0.017000 0.221000
2.400000 0.041000 -0.817000
2.396000 0.042000 -0.824000
2.393000 0.044000 -0.831000
2.380000 0.045000 -0.834000
2.391000 0.046000 -0.846000
2.432000 0.049000 -0.869000
2.483000 0.051000 -0.895000
2.268000 0.078000 -0.109000
2.272000 0.074000 -0.103000
2.268000 0.069000 -0.097000
2.264000 0.056000 -0.012000
2.266000 0.064000 -0.014000
2.264000 0.052000 0.024000
2.252000 0.036000 0.082000
2.246000 0.039000 0.089000
2.255000 0.042000 0.096000
2.256000 0.044000 0.103000
2.260000 0.047000 0.110000
2.259000 0.050000 0.116000
2.274000 0.074000 -0.245000
2.273000 0.076000 -0.252000
2.287000 0.079000 -0.260000
2.280000 0.081000 -0.267000
2.272000 0.083000 -0.273000
2.270000 0.086000 -0.279000
2.273000 0.088000 -0.287000
2.276000 0.091000 -0.294000
2.269000 0.093000 -0.300000
2.269000 0.065000 -0.048000
2.275000 0.059000 -0.043000
2.268000 0.060000 0.005000
2.268000 0.046000 0.042000
2.260000 0.019000 0.224000
2.253000 0.019000 0.230000
2.270000 0.065000 -0.097000
2.261000 0.069000 -0.102000
2.268000 0.074000 -0.109000
2.274000 0.068000 -0.022000
2.271000 0.061000 -0.020000
2.273000 0.057000 0.024000
2.253000 0.054000 0.097000
2.259000 0.051000 0.091000
2.254000 0.047000 0.085000
2.253000 0.043000 0.078000
2.245000 0.040000 0.072000
2.253000 0.036000 0.065000
2.509000 0.081000 -0.670000
2.262000 0.058000 -0.046000
2.269000 0.064000 -0.050000
2.256000 0.054000 0.000000
2.271000 0.048000 0.042000
2.262000 0.053000 0.046000
2.251000 0.048000 0.229000
2.249000 0.046000 0.222000
2.253000 0.038000 0.186000
2.251000 0.036000 0.179000
2.252000 0.035000 0.172000
2.254000 0.033000 0.165000
2.251000 0.032000 0.157000
2.260000 0.030000 0.151000
2.275000 0.085000 -0.161000
2.262000 0.082000 -0.154000
2.272000 0.079000 -0.148000
2.270000 0.075000 -0.141000
2.268000 0.072000 -0.135000
2.271000 0.068000 -0.128000
2.260000 0.057000 -0.021000
2.267000 0.064000 -0.023000
2.268000 0.051000 0.016000
2.250000 0.040000 0.068000
2.248000 0.044000 0.074000
2.253000 0.048000 0.080000
2.258000 0.052000 0.087000
2.259000 0.055000 0.093000
2.272000 -0.023000 0.226000
2.280000 0.080000 -0.424000
2.282000 0.082000 -0.432000
2.283000 0.084000 -0.439000
2.282000 0.086000 -0.446000
2.284000 0.088000 -0.454000
2.261000 0.072000 -0.069000
2.263000 0.067000 -0.063000
2.271000 0.062000 -0.059000
2.260000 0.055000 -0.002000
2.273000 0.063000 -0.002000
2.266000 0.048000 0.034000
2.261000 0.035000 0.157000
2.257000 0.036000 0.164000
2.250000 0.038000 0.171000
2.244000 0.039000 0.178000
2.247000 0.040000 0.185000
2.253000 0.042000 0.193000
2.254000 0.043000 0.200000
2.249000 0.045000 0.207000
2.251000 0.047000 0.221000
2.249000 0.049000 0.228000
2.273000 0.064000 -0.126000
2.270000 0.067000 -0.133000
2.255000 0.070000 -0.138000
2.266000 0.074000 -0.146000
2.265000 0.077000 -0.152000
2.263000 0.062000 -0.029000
2.262000 0.054000 0.015000
2.252000 0.056000 0.076000
2.250000 0.051000 0.070000
2.261000 0.047000 0.064000
2.261000 0.043000 0.058000
2.278000 -0.022000 0.222000
2.276000 -0.023000 0.229000
2.271000 0.059000 -0.060000
2.262000 0.064000 -0.065000
2.268000 0.070000 -0.071000
2.257000 0.058000 -0.007000
2.270000 0.051000 -0.007000
2.269000 0.055000 0.037000
2.261000 0.041000 0.122000
2.253000 0.039000 0.115000
2.256000 0.036000 0.108000
2.262000 0.034000 0.102000
2.251000 0.031000 0.094000
2.279000 0.092000 -0.253000
2.263000 0.089000 -0.244000
2.268000 0.087000 -0.238000
2.272000 0.085000 -0.231000
2.265000 0.082000 -0.223000
2.267000 0.080000 -0.217000
2.271000 0.057000 -0.029000
