# .PCD v0.7 - Point Cloud Data file format
VERSION 0.7
FIELDS x y z
SIZE 4 4 4
TYPE F F F
COUNT 1 1 1
WIDTH 1610
HEIGHT 1
VIEWPOINT 0 0 0 1 0 0 0
POINTS 1610
DATA ascii
2.623000 -0.133000 -0.098000
2.619000 -0.126000 -0.093000
2.621000 -0.119000 -0.088000
2.573000 -0.074000 -0.419000
2.552000 -0.074000 -0.423000
2.530000 -0.075000 -0.428000
2.534000 -0.076000 -0.437000
2.539000 -0.077000 -0.446000
2.622000 -0.081000 -0.478000
2.606000 -0.082000 -0.484000
2.565000 -0.186000 0.086000
2.569000 -0.179000 0.083000
2.537000 -0.110000 0.050000
2.508000 -0.097000 -0.029000
2.526000 -0.105000 -0.032000
2.569000 -0.117000 -0.163000
2.571000 -0.112000 -0.157000
2.612000 -0.104000 -0.146000
2.624000 -0.099000 -0.139000
2.623000 -0.089000 -0.125000
2.566000 -0.109000 0.106000
2.587000 -0.116000 0.112000
2.529000 -0.125000 -0.025000
2.524000 -0.116000 -0.023000
2.495000 -0.099000 -0.020000
2.601000 -0.089000 -0.119000
2.646000 -0.095000 -0.128000
2.660000 -0.101000 -0.136000
2.612000 -0.104000 -0.140000
2.600000 -0.109000 -0.147000
2.580000 -0.113000 -0.152000
2.569000 -0.117000 -0.158000
2.581000 -0.087000 -0.269000
2.539000 -0.102000 -0.321000
2.533000 -0.104000 -0.328000
2.543000 -0.107000 -0.337000
2.604000 -0.114000 -0.362000
2.633000 -0.139000 -0.458000
2.623000 -0.141000 -0.465000
2.621000 -0.143000 -0.473000
2.552000 -0.165000 0.103000
2.553000 -0.158000 0.099000
2.568000 -0.152000 0.095000
2.488000 -0.100000 -0.017000
2.500000 -0.109000 -0.018000
2.527000 -0.118000 -0.020000
2.523000 -0.126000 -0.022000
2.570000 -0.136000 -0.146000
2.559000 -0.130000 -0.140000
2.569000 -0.125000 -0.134000
2.665000 -0.117000 -0.127000
2.680000 -0.112000 -0.121000
2.634000 -0.104000 -0.113000
2.618000 -0.098000 -0.106000
2.625000 -0.092000 -0.100000
2.518000 -0.161000 0.040000
2.508000 -0.152000 0.038000
2.504000 -0.144000 0.035000
2.505000 -0.136000 0.033000
2.513000 -0.129000 0.032000
2.531000 -0.122000 0.030000
2.544000 -0.114000 0.028000
2.547000 -0.107000 0.026000
2.528000 -0.153000 -0.316000
2.530000 -0.150000 -0.309000
2.576000 -0.125000 -0.263000
2.566000 -0.121000 -0.254000
2.587000 -0.118000 -0.249000
2.608000 -0.115000 -0.243000
2.519000 -0.093000 -0.198000
2.622000 -0.089000 -0.191000
2.568000 -0.150000 0.098000
2.551000 -0.156000 0.102000
2.546000 -0.163000 0.106000
2.556000 -0.170000 0.111000
2.636000 -0.129000 -0.009000
2.585000 -0.118000 -0.008000
2.578000 -0.109000 -0.008000
2.618000 -0.101000 -0.104000
2.632000 -0.107000 -0.110000
2.663000 -0.120000 -0.124000
2.559000 -0.132000 -0.138000
2.568000 -0.139000 -0.144000
2.612000 -0.074000 -0.485000
2.584000 -0.103000 0.028000
2.544000 -0.117000 0.032000
2.520000 -0.124000 0.034000
2.509000 -0.131000 0.036000
2.504000 -0.139000 0.038000
2.499000 -0.146000 0.040000
2.506000 -0.155000 0.042000
2.515000 -0.163000 0.044000
2.516000 -0.097000 -0.039000
2.614000 -0.090000 -0.185000
2.522000 -0.094000 -0.194000
2.497000 -0.096000 -0.199000
2.535000 -0.101000 -0.210000
2.604000 -0.118000 -0.246000
2.584000 -0.120000 -0.252000
2.569000 -0.123000 -0.258000
2.579000 -0.127000 -0.267000
2.523000 -0.147000 -0.314000
2.524000 -0.150000 -0.322000
2.559000 -0.135000 0.111000
2.564000 -0.129000 0.106000
2.574000 -0.123000 0.101000
2.576000 -0.117000 0.095000
2.578000 -0.108000 -0.004000
2.569000 -0.116000 -0.004000
2.657000 -0.138000 -0.006000
2.622000 -0.135000 -0.112000
2.616000 -0.128000 -0.107000
2.623000 -0.122000 -0.101000
2.623000 -0.115000 -0.096000
2.621000 -0.108000 -0.091000
2.567000 -0.193000 0.076000
2.509000 -0.121000 0.047000
2.517000 -0.114000 0.044000
2.537000 -0.107000 0.041000
2.575000 -0.101000 0.039000
2.513000 -0.093000 -0.034000
2.587000 -0.166000 -0.257000
2.586000 -0.162000 -0.250000
2.588000 -0.157000 -0.243000
2.554000 -0.104000 -0.164000
2.554000 -0.099000 -0.157000
2.629000 -0.093000 -0.147000
2.681000 -0.090000 -0.143000
2.576000 -0.113000 0.098000
2.571000 -0.120000 0.103000
2.570000 -0.126000 0.108000
2.560000 -0.132000 0.113000
2.557000 -0.138000 0.118000
2.658000 -0.109000 0.006000
2.637000 -0.100000 0.005000
2.617000 -0.109000 -0.087000
2.623000 -0.116000 -0.092000
2.622000 -0.123000 -0.098000
2.620000 -0.129000 -0.103000
2.634000 -0.137000 -0.109000
2.615000 -0.138000 -0.476000
2.616000 -0.135000 -0.468000
2.616000 -0.132000 -0.460000
2.617000 -0.105000 -0.379000
2.615000 -0.102000 -0.370000
2.613000 -0.099000 -0.362000
2.539000 -0.092000 -0.336000
2.538000 -0.089000 -0.328000
2.560000 -0.087000 -0.322000
2.581000 -0.086000 -0.317000
2.584000 -0.083000 -0.309000
2.551000 -0.101000 0.042000
2.527000 -0.107000 0.045000
2.518000 -0.114000 0.048000
2.519000 -0.122000 0.051000
2.572000 -0.194000 0.080000
2.517000 -0.122000 -0.031000
2.524000 -0.114000 -0.029000
2.510000 -0.105000 -0.027000
2.483000 -0.097000 -0.025000
2.668000 -0.094000 -0.142000
2.572000 -0.100000 -0.151000
2.551000 -0.103000 -0.157000
2.586000 -0.154000 -0.238000
2.585000 -0.158000 -0.245000
2.584000 -0.162000 -0.252000
2.584000 -0.167000 -0.259000
2.651000 -0.106000 0.009000
2.588000 -0.081000 -0.308000
2.576000 -0.082000 -0.314000
2.568000 -0.084000 -0.321000
2.558000 -0.086000 -0.328000
2.544000 -0.087000 -0.335000
2.564000 -0.089000 -0.346000
2.599000 -0.093000 -0.359000
2.623000 -0.095000 -0.370000
2.619000 -0.097000 -0.378000
2.611000 -0.098000 -0.385000
2.515000 -0.106000 -0.428000
2.498000 -0.107000 -0.433000
2.554000 -0.111000 -0.451000
2.602000 -0.115000 -0.468000
2.611000 -0.117000 -0.478000
2.565000 -0.179000 0.099000
2.550000 -0.171000 0.094000
2.564000 -0.164000 0.091000
2.491000 -0.099000 -0.022000
2.510000 -0.107000 -0.024000
2.523000 -0.116000 -0.026000
2.517000 -0.123000 -0.028000
2.517000 -0.131000 -0.030000
2.555000 -0.122000 -0.147000
2.663000 -0.110000 -0.133000
2.655000 -0.104000 -0.126000
2.622000 -0.092000 -0.112000
2.508000 -0.162000 0.031000
2.508000 -0.154000 0.029000
2.503000 -0.146000 0.028000
2.515000 -0.138000 0.026000
2.529000 -0.131000 0.025000
2.537000 -0.123000 0.023000
2.518000 -0.136000 -0.323000
2.519000 -0.132000 -0.316000
2.526000 -0.129000 -0.309000
2.580000 -0.111000 -0.270000
2.574000 -0.107000 -0.261000
2.586000 -0.104000 -0.255000
2.496000 -0.084000 -0.209000
2.567000 -0.162000 0.094000
2.550000 -0.169000 0.097000
2.555000 -0.176000 0.101000
2.576000 -0.185000 0.106000
2.583000 -0.125000 -0.015000
2.537000 -0.115000 -0.014000
2.521000 -0.106000 -0.013000
2.582000 -0.100000 -0.012000
2.616000 -0.095000 -0.109000
2.625000 -0.100000 -0.115000
2.663000 -0.113000 -0.130000
2.550000 -0.124000 -0.144000
2.549000 -0.130000 -0.150000
2.526000 -0.125000 0.027000
2.518000 -0.133000 0.029000
2.503000 -0.140000 0.030000
2.501000 -0.148000 0.032000
2.499000 -0.156000 0.033000
2.501000 -0.164000 0.035000
2.494000 -0.082000 -0.195000
2.485000 -0.084000 -0.202000
2.500000 -0.088000 -0.211000
2.574000 -0.106000 -0.256000
2.572000 -0.109000 -0.264000
2.525000 -0.127000 -0.313000
2.517000 -0.129000 -0.320000
2.526000 -0.132000 -0.329000
2.553000 -0.148000 0.109000
2.558000 -0.142000 0.104000
2.569000 -0.136000 0.099000
2.577000 -0.129000 0.095000
2.525000 -0.105000 -0.010000
2.520000 -0.113000 -0.011000
2.665000 -0.131000 -0.122000
2.660000 -0.124000 -0.115000
2.648000 -0.117000 -0.109000
2.633000 -0.110000 -0.103000
2.628000 -0.104000 -0.097000
2.514000 -0.132000 0.043000
2.512000 -0.124000 0.040000
2.519000 -0.116000 0.038000
2.533000 -0.109000 0.035000
2.556000 -0.103000 0.033000
2.583000 -0.148000 -0.259000
2.574000 -0.143000 -0.251000
2.574000 -0.139000 -0.244000
2.581000 -0.135000 -0.238000
2.579000 -0.113000 -0.201000
2.582000 -0.109000 -0.194000
2.599000 -0.105000 -0.188000
2.560000 -0.091000 -0.164000
2.572000 -0.131000 0.100000
2.564000 -0.137000 0.105000
2.551000 -0.143000 0.109000
2.560000 -0.150000 0.115000
2.635000 -0.127000 0.000000
2.622000 -0.118000 0.000000
2.644000 -0.110000 0.000000
2.636000 -0.102000 0.000000
2.624000 -0.103000 -0.091000
2.622000 -0.109000 -0.097000
2.633000 -0.116000 -0.103000
2.652000 -0.123000 -0.110000
2.650000 -0.129000 -0.115000
2.605000 -0.108000 -0.476000
2.596000 -0.106000 -0.466000
2.503000 -0.097000 -0.433000
2.525000 -0.096000 -0.429000
2.568000 -0.095000 -0.428000
2.578000 -0.094000 -0.422000
2.616000 -0.086000 -0.395000
2.623000 -0.084000 -0.387000
2.631000 -0.082000 -0.380000
2.561000 -0.101000 0.036000
2.539000 -0.108000 0.038000
2.520000 -0.115000 0.041000
2.512000 -0.122000 0.043000
2.509000 -0.130000 0.046000
2.538000 -0.116000 -0.037000
2.532000 -0.108000 -0.034000
2.509000 -0.099000 -0.032000
2.563000 -0.093000 -0.160000
2.571000 -0.110000 -0.190000
2.553000 -0.113000 -0.196000
2.576000 -0.118000 -0.205000
2.573000 -0.138000 -0.242000
2.573000 -0.142000 -0.249000
2.579000 -0.146000 -0.257000
2.641000 -0.103000 0.003000
2.641000 -0.112000 0.003000
2.617000 -0.119000 0.003000
2.643000 -0.129000 0.003000
2.611000 -0.141000 -0.101000
2.631000 -0.077000 -0.400000
2.559000 -0.080000 -0.422000
2.523000 -0.080000 -0.424000
2.521000 -0.081000 -0.432000
2.530000 -0.082000 -0.442000
2.624000 -0.088000 -0.476000
2.604000 -0.088000 -0.481000
2.565000 -0.186000 0.090000
2.566000 -0.179000 0.086000
2.499000 -0.095000 -0.027000
2.533000 -0.112000 -0.032000
2.562000 -0.116000 -0.156000
2.615000 -0.108000 -0.146000
2.635000 -0.093000 -0.127000
2.581000 -0.113000 0.112000
2.571000 -0.118000 0.117000
2.576000 -0.123000 -0.350000
2.557000 -0.119000 -0.339000
2.528000 -0.115000 -0.328000
2.531000 -0.112000 -0.320000
2.543000 -0.110000 -0.314000
2.575000 -0.093000 -0.271000
2.577000 -0.090000 -0.263000
2.571000 -0.104000 0.053000
2.526000 -0.110000 0.055000
2.562000 -0.179000 0.089000
2.567000 -0.186000 0.093000
2.532000 -0.126000 -0.023000
2.535000 -0.118000 -0.022000
2.498000 -0.101000 -0.019000
2.501000 -0.093000 -0.017000
2.610000 -0.090000 -0.117000
2.629000 -0.095000 -0.124000
2.662000 -0.102000 -0.133000
2.609000 -0.110000 -0.144000
2.587000 -0.114000 -0.149000
2.565000 -0.118000 -0.155000
2.571000 -0.083000 -0.241000
2.579000 -0.091000 -0.266000
2.541000 -0.106000 -0.318000
2.533000 -0.108000 -0.325000
2.537000 -0.111000 -0.333000
2.588000 -0.118000 -0.357000
2.625000 -0.149000 -0.470000
2.560000 -0.166000 0.107000
2.553000 -0.158000 0.102000
2.565000 -0.152000 0.098000
2.575000 -0.146000 0.094000
2.497000 -0.099000 -0.015000
2.491000 -0.106000 -0.016000
2.536000 -0.125000 -0.020000
2.519000 -0.132000 -0.021000
2.562000 -0.134000 -0.140000
2.567000 -0.128000 -0.134000
2.670000 -0.121000 -0.127000
2.671000 -0.115000 -0.121000
2.662000 -0.109000 -0.115000
2.624000 -0.095000 -0.101000
2.517000 -0.155000 0.040000
2.505000 -0.146000 0.038000
2.500000 -0.138000 0.036000
2.507000 -0.131000 0.034000
2.526000 -0.124000 0.032000
2.539000 -0.117000 0.030000
2.553000 -0.109000 0.028000
2.575000 -0.102000 0.026000
2.580000 -0.130000 -0.265000
2.570000 -0.126000 -0.256000
2.570000 -0.122000 -0.249000
2.578000 -0.103000 -0.212000
2.547000 -0.094000 -0.195000
2.625000 -0.089000 -0.186000
2.566000 -0.146000 0.098000
2.561000 -0.153000 0.102000
2.549000 -0.159000 0.106000
2.569000 -0.167000 0.112000
2.650000 -0.133000 -0.007000
2.612000 -0.123000 -0.007000
2.584000 -0.113000 -0.006000
2.621000 -0.106000 -0.006000
2.621000 -0.098000 -0.005000
2.615000 -0.099000 -0.100000
2.624000 -0.105000 -0.106000
2.663000 -0.119000 -0.120000
2.663000 -0.125000 -0.126000
2.568000 -0.132000 -0.134000
2.569000 -0.138000 -0.140000
2.609000 -0.080000 -0.487000
2.616000 -0.079000 -0.480000
2.629000 -0.077000 -0.474000
2.542000 -0.114000 0.033000
2.527000 -0.121000 0.035000
2.513000 -0.128000 0.037000
2.506000 -0.136000 0.039000
2.499000 -0.143000 0.041000
2.508000 -0.152000 0.043000
2.517000 -0.160000 0.045000
2.516000 -0.093000 -0.036000
2.593000 -0.086000 -0.172000
2.617000 -0.090000 -0.181000
2.529000 -0.098000 -0.197000
2.514000 -0.101000 -0.204000
2.588000 -0.122000 -0.248000
2.564000 -0.124000 -0.253000
2.576000 -0.128000 -0.262000
2.521000 -0.152000 -0.317000
2.563000 -0.131000 0.110000
2.573000 -0.125000 0.105000
2.574000 -0.119000 0.099000
2.577000 -0.112000 0.094000
2.615000 -0.107000 -0.003000
2.579000 -0.113000 -0.003000
2.611000 -0.123000 -0.003000
2.649000 -0.134000 -0.004000
2.613000 -0.139000 -0.113000
2.620000 -0.132000 -0.108000
2.615000 -0.125000 -0.102000
2.622000 -0.119000 -0.097000
2.614000 -0.112000 -0.092000
2.616000 -0.106000 -0.086000
2.519000 -0.124000 0.050000
2.523000 -0.117000 0.047000
2.532000 -0.110000 0.044000
2.546000 -0.103000 0.041000
2.521000 -0.098000 -0.035000
2.586000 -0.167000 -0.251000
2.589000 -0.162000 -0.245000
2.556000 -0.103000 -0.159000
2.567000 -0.099000 -0.153000
2.650000 -0.093000 -0.144000
2.578000 -0.109000 0.096000
2.567000 -0.115000 0.101000
2.570000 -0.121000 0.106000
2.559000 -0.127000 0.111000
2.560000 -0.133000 0.116000
2.647000 -0.105000 0.007000
2.610000 -0.113000 -0.087000
2.614000 -0.120000 -0.093000
2.623000 -0.127000 -0.098000
2.621000 -0.133000 -0.104000
2.617000 -0.140000 -0.109000
2.621000 -0.142000 -0.473000
2.629000 -0.139000 -0.466000
2.636000 -0.137000 -0.459000
2.612000 -0.105000 -0.365000
2.591000 -0.101000 -0.354000
2.544000 -0.097000 -0.340000
2.535000 -0.094000 -0.331000
2.542000 -0.092000 -0.324000
2.565000 -0.090000 -0.319000
2.584000 -0.088000 -0.313000
2.602000 -0.086000 -0.307000
2.597000 -0.083000 -0.299000
2.524000 -0.109000 0.047000
2.515000 -0.116000 0.050000
2.519000 -0.124000 0.053000
2.569000 -0.196000 0.083000
2.520000 -0.127000 -0.032000
2.520000 -0.119000 -0.030000
2.520000 -0.111000 -0.028000
2.505000 -0.103000 -0.026000
2.484000 -0.094000 -0.023000
2.682000 -0.093000 -0.137000
2.653000 -0.096000 -0.143000
2.599000 -0.099000 -0.147000
2.567000 -0.102000 -0.152000
2.554000 -0.106000 -0.158000
2.585000 -0.157000 -0.238000
2.584000 -0.161000 -0.245000
2.587000 -0.166000 -0.253000
2.632000 -0.100000 0.009000
2.647000 -0.109000 0.010000
2.648000 -0.118000 0.011000
2.593000 -0.082000 -0.303000
2.581000 -0.084000 -0.309000
2.569000 -0.085000 -0.316000
2.563000 -0.087000 -0.324000
2.548000 -0.089000 -0.330000
2.544000 -0.090000 -0.337000
2.612000 -0.097000 -0.363000
2.621000 -0.099000 -0.373000
2.613000 -0.100000 -0.380000
2.610000 -0.102000 -0.388000
2.508000 -0.110000 -0.429000
2.510000 -0.112000 -0.438000
2.609000 -0.120000 -0.472000
2.574000 -0.182000 0.103000
2.553000 -0.174000 0.098000
2.557000 -0.167000 0.094000
2.571000 -0.161000 0.090000
2.643000 -0.106000 0.059000
2.483000 -0.094000 -0.020000
2.503000 -0.103000 -0.022000
2.519000 -0.112000 -0.024000
2.519000 -0.120000 -0.026000
2.518000 -0.127000 -0.028000
2.552000 -0.126000 -0.149000
2.561000 -0.121000 -0.144000
2.667000 -0.109000 -0.130000
2.651000 -0.103000 -0.123000
2.621000 -0.096000 -0.115000
2.622000 -0.091000 -0.108000
2.505000 -0.159000 0.031000
2.502000 -0.151000 0.030000
2.503000 -0.143000 0.028000
2.520000 -0.136000 0.027000
2.519000 -0.128000 0.025000
2.518000 -0.136000 -0.320000
2.526000 -0.133000 -0.313000
2.578000 -0.111000 -0.266000
2.580000 -0.108000 -0.259000
2.595000 -0.105000 -0.253000
2.484000 -0.084000 -0.205000
2.563000 -0.164000 0.095000
2.550000 -0.170000 0.099000
2.564000 -0.178000 0.104000
2.584000 -0.187000 0.108000
2.521000 -0.112000 -0.013000
2.544000 -0.105000 -0.012000
2.559000 -0.097000 -0.011000
2.624000 -0.092000 -0.104000
2.618000 -0.097000 -0.111000
2.661000 -0.110000 -0.126000
2.551000 -0.127000 -0.146000
2.530000 -0.129000 0.028000
2.517000 -0.136000 0.030000
2.506000 -0.143000 0.031000
2.502000 -0.151000 0.033000
2.501000 -0.159000 0.035000
2.514000 -0.168000 0.036000
2.482000 -0.083000 -0.197000
2.493000 -0.087000 -0.206000
2.585000 -0.105000 -0.253000
2.573000 -0.108000 -0.259000
2.578000 -0.111000 -0.268000
2.530000 -0.127000 -0.309000
2.516000 -0.129000 -0.315000
2.514000 -0.131000 -0.323000
2.553000 -0.145000 0.107000
2.570000 -0.139000 0.103000
2.573000 -0.133000 0.098000
2.515000 -0.108000 -0.010000
2.540000 -0.117000 -0.011000
2.593000 -0.128000 -0.012000
2.658000 -0.129000 -0.119000
2.652000 -0.122000 -0.113000
2.642000 -0.115000 -0.107000
2.633000 -0.108000 -0.100000
2.628000 -0.102000 -0.094000
2.514000 -0.136000 0.045000
2.510000 -0.128000 0.042000
2.518000 -0.121000 0.040000
2.526000 -0.114000 0.037000
2.545000 -0.107000 0.035000
2.566000 -0.100000 0.032000
2.580000 -0.151000 -0.261000
2.574000 -0.146000 -0.254000
2.570000 -0.142000 -0.246000
2.577000 -0.138000 -0.240000
2.583000 -0.112000 -0.197000
2.604000 -0.108000 -0.191000
2.563000 -0.090000 -0.160000
2.571000 -0.127000 0.098000
2.572000 -0.134000 0.104000
2.556000 -0.140000 0.108000
2.551000 -0.146000 0.113000
2.647000 -0.131000 0.000000
2.629000 -0.122000 0.000000
2.642000 -0.114000 0.000000
2.648000 -0.105000 0.000000
2.627000 -0.108000 -0.095000
2.635000 -0.114000 -0.101000
2.658000 -0.122000 -0.107000
2.652000 -0.128000 -0.113000
2.658000 -0.135000 -0.119000
2.615000 -0.112000 -0.480000
2.604000 -0.110000 -0.469000
2.503000 -0.101000 -0.435000
2.517000 -0.099000 -0.430000
2.581000 -0.097000 -0.424000
2.612000 -0.089000 -0.396000
2.618000 -0.087000 -0.389000
2.627000 -0.085000 -0.382000
2.614000 -0.082000 -0.372000
2.596000 -0.080000 -0.361000
2.529000 -0.112000 0.040000
2.515000 -0.119000 0.043000
2.510000 -0.126000 0.045000
2.510000 -0.134000 0.048000
2.532000 -0.111000 -0.035000
2.516000 -0.102000 -0.032000
2.498000 -0.093000 -0.029000
2.564000 -0.093000 -0.158000
2.592000 -0.110000 -0.189000
2.570000 -0.113000 -0.194000
2.544000 -0.116000 -0.200000
2.571000 -0.138000 -0.239000
2.571000 -0.142000 -0.246000
2.578000 -0.146000 -0.254000
2.584000 -0.150000 -0.262000
2.629000 -0.099000 0.003000
2.644000 -0.108000 0.003000
2.632000 -0.116000 0.004000
2.637000 -0.125000 0.004000
2.644000 -0.134000 0.004000
2.615000 -0.145000 -0.103000
2.616000 -0.138000 -0.098000
2.637000 -0.078000 -0.388000
2.637000 -0.079000 -0.397000
2.623000 -0.080000 -0.403000
2.581000 -0.083000 -0.422000
2.537000 -0.083000 -0.423000
2.519000 -0.083000 -0.428000
2.519000 -0.084000 -0.436000
2.533000 -0.086000 -0.447000
2.610000 -0.091000 -0.478000
2.614000 -0.092000 -0.487000
2.565000 -0.188000 0.092000
2.559000 -0.180000 0.088000
2.562000 -0.173000 0.084000
2.492000 -0.093000 -0.026000
2.532000 -0.110000 -0.031000
2.555000 -0.117000 -0.157000
2.580000 -0.113000 -0.152000
2.620000 -0.110000 -0.147000
2.646000 -0.095000 -0.128000
2.618000 -0.089000 -0.120000
2.613000 -0.135000 -0.091000
2.615000 -0.142000 -0.096000
2.610000 -0.148000 -0.101000
2.549000 -0.122000 -0.339000
2.529000 -0.118000 -0.328000
2.532000 -0.115000 -0.321000
2.541000 -0.112000 -0.314000
2.580000 -0.092000 -0.264000
2.596000 -0.090000 -0.258000
2.570000 -0.083000 -0.240000
2.612000 -0.123000 -0.086000
2.614000 -0.130000 -0.091000
2.613000 -0.137000 -0.096000
2.616000 -0.144000 -0.102000
2.613000 -0.150000 -0.106000
2.574000 -0.117000 -0.348000
2.541000 -0.113000 -0.335000
2.532000 -0.110000 -0.326000
2.536000 -0.107000 -0.319000
2.554000 -0.105000 -0.314000
2.577000 -0.088000 -0.269000
2.630000 -0.104000 0.051000
2.526000 -0.114000 0.056000
2.567000 -0.176000 0.085000
2.565000 -0.184000 0.089000
2.573000 -0.192000 0.092000
2.529000 -0.129000 -0.025000
2.530000 -0.121000 -0.024000
2.498000 -0.104000 -0.020000
2.490000 -0.095000 -0.019000
2.614000 -0.092000 -0.123000
2.611000 -0.107000 -0.143000
2.596000 -0.111000 -0.149000
2.570000 -0.115000 -0.155000
2.572000 -0.120000 -0.161000
2.579000 -0.088000 -0.266000
2.545000 -0.103000 -0.319000
2.535000 -0.105000 -0.325000
2.538000 -0.107000 -0.334000
2.604000 -0.114000 -0.359000
2.627000 -0.142000 -0.462000
2.622000 -0.144000 -0.470000
2.563000 -0.168000 0.106000
2.554000 -0.160000 0.101000
2.567000 -0.154000 0.097000
2.574000 -0.148000 0.093000
2.489000 -0.097000 -0.016000
2.492000 -0.105000 -0.018000
2.513000 -0.114000 -0.019000
2.533000 -0.123000 -0.021000
2.521000 -0.131000 -0.022000
2.565000 -0.133000 -0.142000
2.569000 -0.127000 -0.136000
2.674000 -0.114000 -0.123000
2.651000 -0.107000 -0.116000
2.624000 -0.100000 -0.108000
2.626000 -0.095000 -0.102000
2.506000 -0.154000 0.039000
2.502000 -0.146000 0.036000
2.506000 -0.139000 0.034000
2.515000 -0.131000 0.032000
2.535000 -0.124000 0.031000
2.548000 -0.117000 0.029000
2.556000 -0.109000 0.027000
2.531000 -0.152000 -0.311000
2.582000 -0.127000 -0.265000
2.573000 -0.123000 -0.257000
2.576000 -0.119000 -0.250000
2.513000 -0.094000 -0.200000
2.619000 -0.087000 -0.185000
2.561000 -0.177000 0.090000
2.565000 -0.185000 0.094000
2.533000 -0.127000 -0.022000
2.539000 -0.119000 -0.021000
2.505000 -0.101000 -0.018000
2.503000 -0.093000 -0.016000
2.613000 -0.091000 -0.116000
2.629000 -0.097000 -0.124000
2.653000 -0.103000 -0.132000
2.615000 -0.112000 -0.144000
2.560000 -0.119000 -0.154000
2.504000 -0.162000 0.026000
2.573000 -0.084000 -0.234000
2.567000 -0.086000 -0.241000
2.576000 -0.094000 -0.266000
2.537000 -0.110000 -0.317000
2.536000 -0.113000 -0.325000
2.539000 -0.115000 -0.333000
2.560000 -0.163000 0.108000
2.557000 -0.156000 0.103000
2.564000 -0.150000 0.099000
2.571000 -0.144000 0.095000
2.498000 -0.100000 -0.014000
2.492000 -0.107000 -0.015000
2.538000 -0.126000 -0.018000
2.578000 -0.141000 -0.144000
2.571000 -0.135000 -0.138000
2.576000 -0.129000 -0.132000
2.668000 -0.122000 -0.125000
2.672000 -0.116000 -0.119000
2.630000 -0.102000 -0.105000
2.616000 -0.095000 -0.098000
2.508000 -0.153000 0.042000
2.506000 -0.145000 0.039000
2.507000 -0.137000 0.037000
2.507000 -0.129000 0.035000
2.521000 -0.122000 0.033000
2.541000 -0.115000 0.031000
2.548000 -0.107000 0.029000
2.585000 -0.133000 -0.262000
2.571000 -0.128000 -0.254000
2.569000 -0.124000 -0.246000
2.522000 -0.099000 -0.198000
2.618000 -0.095000 -0.190000
2.621000 -0.091000 -0.183000
2.572000 -0.140000 0.096000
2.564000 -0.146000 0.101000
2.554000 -0.153000 0.105000
2.558000 -0.160000 0.110000
2.651000 -0.131000 -0.006000
2.614000 -0.121000 -0.005000
2.606000 -0.112000 -0.005000
2.620000 -0.102000 -0.100000
2.658000 -0.122000 -0.120000
2.572000 -0.136000 -0.134000
2.572000 -0.141000 -0.140000
2.620000 -0.085000 -0.477000
2.622000 -0.083000 -0.469000
2.524000 -0.076000 -0.436000
2.526000 -0.075000 -0.428000
2.576000 -0.100000 0.030000
2.542000 -0.115000 0.035000
2.522000 -0.122000 0.037000
2.509000 -0.129000 0.039000
2.506000 -0.137000 0.041000
2.506000 -0.144000 0.043000
2.514000 -0.153000 0.046000
2.523000 -0.100000 -0.037000
2.509000 -0.092000 -0.034000
2.593000 -0.089000 -0.171000
2.625000 -0.094000 -0.181000
2.519000 -0.101000 -0.196000
2.532000 -0.105000 -0.204000
2.578000 -0.125000 -0.246000
2.570000 -0.128000 -0.253000
2.577000 -0.132000 -0.261000
2.528000 -0.154000 -0.308000
2.529000 -0.158000 -0.316000
2.565000 -0.128000 0.111000
2.570000 -0.122000 0.106000
2.578000 -0.116000 0.100000
2.577000 -0.110000 0.095000
2.618000 -0.108000 -0.001000
2.623000 -0.125000 -0.002000
2.653000 -0.135000 -0.002000
2.616000 -0.139000 -0.110000
2.614000 -0.132000 -0.105000
2.618000 -0.126000 -0.100000
2.616000 -0.119000 -0.094000
2.618000 -0.112000 -0.089000
2.567000 -0.192000 0.082000
2.522000 -0.121000 0.051000
2.522000 -0.114000 0.048000
2.533000 -0.107000 0.045000
2.504000 -0.092000 -0.031000
2.523000 -0.101000 -0.034000
2.562000 -0.109000 -0.163000
2.563000 -0.105000 -0.156000
2.608000 -0.097000 -0.145000
2.577000 -0.110000 0.100000
2.575000 -0.116000 0.106000
2.566000 -0.122000 0.111000
2.559000 -0.128000 0.116000
2.614000 -0.117000 -0.088000
2.622000 -0.124000 -0.093000
2.621000 -0.131000 -0.098000
2.617000 -0.137000 -0.103000
2.614000 -0.144000 -0.108000
2.632000 -0.146000 -0.461000
2.599000 -0.110000 -0.359000
2.569000 -0.105000 -0.347000
2.539000 -0.101000 -0.335000
2.535000 -0.099000 -0.326000
2.542000 -0.096000 -0.319000
2.522000 -0.112000 0.051000
2.525000 -0.119000 0.054000
2.566000 -0.190000 0.085000
2.524000 -0.125000 -0.028000
2.521000 -0.117000 -0.027000
2.505000 -0.108000 -0.025000
2.488000 -0.100000 -0.023000
2.489000 -0.092000 -0.021000
2.680000 -0.097000 -0.138000
2.619000 -0.100000 -0.142000
2.597000 -0.103000 -0.147000
2.566000 -0.107000 -0.152000
2.557000 -0.111000 -0.159000
2.594000 -0.169000 -0.246000
2.581000 -0.092000 -0.312000
2.567000 -0.093000 -0.319000
2.541000 -0.094000 -0.323000
2.541000 -0.096000 -0.331000
2.559000 -0.099000 -0.342000
2.600000 -0.103000 -0.356000
2.615000 -0.105000 -0.366000
2.613000 -0.107000 -0.374000
2.521000 -0.121000 -0.433000
2.580000 -0.127000 -0.460000
2.613000 -0.131000 -0.475000
2.561000 -0.175000 0.104000
2.550000 -0.168000 0.099000
2.565000 -0.161000 0.096000
2.567000 -0.155000 0.091000
2.487000 -0.092000 -0.018000
2.483000 -0.099000 -0.019000
2.504000 -0.108000 -0.021000
2.521000 -0.117000 -0.023000
2.517000 -0.125000 -0.024000
2.516000 -0.133000 -0.026000
2.557000 -0.127000 -0.143000
2.564000 -0.121000 -0.137000
2.672000 -0.115000 -0.130000
2.671000 -0.109000 -0.124000
2.614000 -0.095000 -0.108000
2.506000 -0.161000 0.036000
2.502000 -0.152000 0.034000
2.506000 -0.145000 0.032000
2.513000 -0.137000 0.030000
2.525000 -0.130000 0.028000
2.536000 -0.122000 0.027000
2.535000 -0.114000 0.025000
2.517000 -0.145000 -0.319000
2.533000 -0.142000 -0.313000
2.578000 -0.119000 -0.266000
2.574000 -0.115000 -0.258000
2.592000 -0.112000 -0.252000
2.612000 -0.109000 -0.246000
2.490000 -0.090000 -0.205000
2.504000 -0.088000 -0.199000
2.531000 -0.085000 -0.194000
2.636000 -0.106000 0.066000
2.574000 -0.153000 0.095000
2.558000 -0.159000 0.099000
2.548000 -0.166000 0.103000
2.556000 -0.174000 0.107000
2.607000 -0.126000 -0.011000
2.552000 -0.115000 -0.010000
2.554000 -0.107000 -0.010000
2.616000 -0.099000 -0.106000
2.638000 -0.105000 -0.114000
2.671000 -0.113000 -0.122000
2.666000 -0.118000 -0.128000
2.552000 -0.130000 -0.141000
2.565000 -0.136000 -0.148000
2.536000 -0.119000 0.030000
2.525000 -0.127000 0.032000
2.513000 -0.134000 0.034000
2.510000 -0.142000 0.035000
2.506000 -0.150000 0.037000
2.510000 -0.158000 0.039000
2.521000 -0.166000 0.041000
2.521000 -0.095000 -0.041000
2.501000 -0.089000 -0.195000
2.486000 -0.092000 -0.201000
2.601000 -0.113000 -0.250000
2.580000 -0.115000 -0.256000
2.578000 -0.118000 -0.263000
2.527000 -0.138000 -0.311000
2.516000 -0.140000 -0.318000
2.520000 -0.143000 -0.326000
2.562000 -0.143000 0.112000
2.562000 -0.137000 0.107000
2.565000 -0.130000 0.102000
2.576000 -0.124000 0.097000
2.541000 -0.109000 -0.006000
2.558000 -0.118000 -0.007000
2.617000 -0.129000 -0.008000
2.635000 -0.131000 -0.114000
2.632000 -0.125000 -0.109000
2.631000 -0.118000 -0.103000
2.629000 -0.112000 -0.097000
2.624000 -0.105000 -0.092000
2.510000 -0.127000 0.046000
2.512000 -0.119000 0.043000
2.526000 -0.112000 0.041000
2.542000 -0.105000 0.038000
2.520000 -0.096000 -0.037000
2.588000 -0.159000 -0.258000
2.578000 -0.154000 -0.250000
2.580000 -0.150000 -0.243000
2.584000 -0.145000 -0.236000
2.616000 -0.119000 -0.196000
2.553000 -0.099000 -0.163000
2.563000 -0.095000 -0.157000
2.654000 -0.089000 -0.148000
2.571000 -0.124000 0.102000
2.568000 -0.130000 0.107000
2.559000 -0.136000 0.112000
2.559000 -0.143000 0.117000
2.630000 -0.122000 0.004000
2.651000 -0.114000 0.004000
2.654000 -0.106000 0.003000
2.619000 -0.110000 -0.091000
2.632000 -0.117000 -0.097000
2.632000 -0.124000 -0.102000
2.638000 -0.130000 -0.108000
2.653000 -0.138000 -0.114000
2.612000 -0.127000 -0.475000
2.573000 -0.122000 -0.460000
2.528000 -0.118000 -0.444000
2.508000 -0.114000 -0.433000
2.518000 -0.112000 -0.427000
2.613000 -0.099000 -0.385000
2.615000 -0.096000 -0.377000
2.618000 -0.094000 -0.370000
2.600000 -0.091000 -0.359000
2.558000 -0.087000 -0.345000
2.546000 -0.084000 -0.335000
2.555000 -0.082000 -0.328000
2.567000 -0.080000 -0.322000
2.526000 -0.111000 0.044000
2.516000 -0.118000 0.047000
2.515000 -0.126000 0.050000
2.526000 -0.126000 -0.035000
2.531000 -0.118000 -0.033000
2.523000 -0.110000 -0.031000
2.505000 -0.102000 -0.028000
2.489000 -0.093000 -0.026000
2.651000 -0.092000 -0.146000
2.560000 -0.098000 -0.155000
2.555000 -0.102000 -0.162000
2.608000 -0.122000 -0.194000
2.580000 -0.146000 -0.236000
2.579000 -0.150000 -0.243000
2.580000 -0.154000 -0.250000
2.580000 -0.159000 -0.258000
2.483000 -0.103000 0.105000
2.643000 -0.102000 0.007000
2.656000 -0.111000 0.007000
2.625000 -0.118000 0.008000
2.637000 -0.127000 0.008000
2.568000 -0.079000 -0.328000
2.571000 -0.080000 -0.337000
2.585000 -0.083000 -0.347000
2.601000 -0.085000 -0.357000
2.609000 -0.087000 -0.367000
2.627000 -0.089000 -0.378000
2.614000 -0.090000 -0.385000
2.610000 -0.092000 -0.392000
2.577000 -0.097000 -0.421000
2.568000 -0.098000 -0.428000
2.502000 -0.098000 -0.433000
2.604000 -0.105000 -0.468000
2.606000 -0.107000 -0.476000
2.570000 -0.183000 0.097000
2.562000 -0.175000 0.092000
2.564000 -0.168000 0.089000
2.649000 -0.106000 0.055000
2.490000 -0.096000 -0.024000
2.529000 -0.113000 -0.028000
2.526000 -0.121000 -0.030000
2.552000 -0.121000 -0.151000
2.554000 -0.116000 -0.145000
2.664000 -0.104000 -0.131000
2.643000 -0.098000 -0.123000
2.618000 -0.092000 -0.116000
2.511000 -0.166000 0.028000
2.510000 -0.158000 0.027000
2.513000 -0.150000 0.025000
2.515000 -0.142000 0.024000
2.523000 -0.130000 -0.329000
2.518000 -0.127000 -0.321000
2.523000 -0.124000 -0.314000
2.536000 -0.121000 -0.308000
2.575000 -0.103000 -0.266000
2.578000 -0.100000 -0.259000
2.595000 -0.097000 -0.253000
2.640000 -0.106000 0.059000
2.564000 -0.169000 0.093000
2.556000 -0.176000 0.097000
2.574000 -0.185000 0.101000
2.575000 -0.127000 -0.018000
2.535000 -0.117000 -0.017000
2.502000 -0.107000 -0.015000
2.542000 -0.101000 -0.014000
2.614000 -0.091000 -0.109000
2.619000 -0.097000 -0.116000
2.654000 -0.109000 -0.131000
2.548000 -0.126000 -0.151000
2.519000 -0.133000 0.026000
2.513000 -0.140000 0.027000
2.515000 -0.148000 0.029000
2.504000 -0.156000 0.030000
2.505000 -0.164000 0.032000
2.509000 -0.084000 -0.213000
2.594000 -0.098000 -0.252000
2.575000 -0.100000 -0.258000
2.572000 -0.103000 -0.265000
2.528000 -0.121000 -0.315000
2.523000 -0.123000 -0.322000
2.538000 -0.126000 -0.332000
2.557000 -0.151000 0.106000
2.561000 -0.144000 0.102000
2.570000 -0.138000 0.097000
2.528000 -0.096000 -0.011000
2.518000 -0.104000 -0.012000
2.509000 -0.112000 -0.012000
2.585000 -0.144000 -0.138000
2.665000 -0.123000 -0.119000
2.668000 -0.117000 -0.113000
2.630000 -0.103000 -0.099000
2.623000 -0.096000 -0.093000
2.518000 -0.141000 0.043000
2.504000 -0.132000 0.041000
2.512000 -0.125000 0.038000
2.528000 -0.118000 0.036000
2.546000 -0.111000 0.034000
2.557000 -0.103000 0.031000
2.577000 -0.143000 -0.260000
2.571000 -0.139000 -0.253000
2.568000 -0.134000 -0.245000
2.580000 -0.130000 -0.239000
2.523000 -0.107000 -0.198000
2.551000 -0.104000 -0.193000
2.595000 -0.102000 -0.189000
2.629000 -0.099000 -0.184000
2.561000 -0.088000 -0.165000
2.574000 -0.133000 0.099000
2.564000 -0.139000 0.103000
2.554000 -0.145000 0.107000
2.554000 -0.152000 0.112000
2.637000 -0.126000 -0.001000
2.623000 -0.117000 -0.001000
2.643000 -0.109000 -0.001000
2.636000 -0.100000 -0.001000
2.625000 -0.103000 -0.094000
2.638000 -0.110000 -0.100000
2.658000 -0.117000 -0.107000
2.661000 -0.123000 -0.113000
2.670000 -0.130000 -0.119000
2.579000 -0.144000 -0.133000
2.606000 -0.101000 -0.476000
2.603000 -0.099000 -0.467000
2.508000 -0.091000 -0.434000
2.522000 -0.089000 -0.428000
2.578000 -0.087000 -0.421000
2.635000 -0.081000 -0.397000
2.644000 -0.079000 -0.390000
2.563000 -0.102000 0.035000
2.535000 -0.109000 0.037000
2.523000 -0.116000 0.039000
2.515000 -0.124000 0.042000
2.504000 -0.131000 0.044000
2.513000 -0.139000 0.047000
2.530000 -0.105000 -0.035000
2.508000 -0.097000 -0.033000
2.572000 -0.092000 -0.164000
2.586000 -0.105000 -0.187000
2.538000 -0.107000 -0.191000
2.508000 -0.109000 -0.196000
2.578000 -0.132000 -0.238000
2.563000 -0.135000 -0.245000
2.572000 -0.139000 -0.253000
2.577000 -0.143000 -0.261000
2.574000 -0.121000 0.112000
2.584000 -0.116000 0.107000
2.564000 -0.109000 0.100000
2.641000 -0.105000 0.001000
2.630000 -0.113000 0.001000
2.621000 -0.121000 0.002000
2.641000 -0.131000 0.002000
2.617000 -0.146000 -0.107000
2.616000 -0.139000 -0.102000
2.618000 -0.132000 -0.097000
2.613000 -0.125000 -0.092000
2.613000 -0.118000 -0.087000
2.555000 -0.075000 -0.424000
2.525000 -0.076000 -0.427000
2.531000 -0.077000 -0.437000
2.537000 -0.078000 -0.446000
2.620000 -0.083000 -0.478000
2.609000 -0.083000 -0.484000
2.562000 -0.185000 0.087000
2.565000 -0.178000 0.083000
2.533000 -0.109000 0.050000
2.507000 -0.097000 -0.029000
2.530000 -0.106000 -0.032000
2.573000 -0.113000 -0.156000
2.593000 -0.109000 -0.151000
2.611000 -0.105000 -0.145000
2.622000 -0.090000 -0.125000
2.580000 -0.109000 0.106000
2.583000 -0.115000 0.112000
2.574000 -0.121000 0.117000
2.610000 -0.123000 -0.086000
2.619000 -0.130000 -0.091000
2.612000 -0.137000 -0.096000
2.607000 -0.144000 -0.100000
2.573000 -0.119000 -0.348000
2.532000 -0.111000 -0.326000
2.536000 -0.109000 -0.319000
2.549000 -0.106000 -0.313000
2.579000 -0.090000 -0.269000
2.589000 -0.087000 -0.262000
2.530000 -0.106000 0.053000
2.521000 -0.113000 0.056000
2.567000 -0.175000 0.086000
2.558000 -0.182000 0.089000
2.573000 -0.191000 0.093000
2.517000 -0.129000 -0.025000
2.539000 -0.122000 -0.023000
2.511000 -0.113000 -0.022000
2.491000 -0.104000 -0.020000
2.498000 -0.096000 -0.018000
2.613000 -0.092000 -0.122000
2.607000 -0.107000 -0.142000
2.594000 -0.112000 -0.148000
2.570000 -0.116000 -0.153000
2.565000 -0.120000 -0.160000
2.567000 -0.084000 -0.247000
2.580000 -0.089000 -0.264000
2.578000 -0.092000 -0.272000
2.546000 -0.105000 -0.316000
2.537000 -0.107000 -0.323000
2.533000 -0.109000 -0.331000
2.592000 -0.116000 -0.355000
2.635000 -0.146000 -0.461000
2.623000 -0.147000 -0.467000
2.566000 -0.169000 0.108000
2.551000 -0.161000 0.103000
2.566000 -0.155000 0.099000
2.569000 -0.148000 0.095000
2.490000 -0.096000 -0.015000
2.491000 -0.104000 -0.016000
2.511000 -0.112000 -0.018000
2.538000 -0.122000 -0.019000
2.518000 -0.129000 -0.021000
2.573000 -0.141000 -0.149000
2.571000 -0.135000 -0.142000
2.569000 -0.129000 -0.136000
2.663000 -0.116000 -0.123000
2.674000 -0.110000 -0.117000
2.624000 -0.097000 -0.103000
2.620000 -0.091000 -0.096000
2.512000 -0.156000 0.040000
2.503000 -0.147000 0.038000
2.506000 -0.140000 0.036000
2.509000 -0.132000 0.034000
2.526000 -0.125000 0.032000
2.539000 -0.118000 0.030000
2.551000 -0.110000 0.028000
2.577000 -0.103000 0.026000
2.581000 -0.130000 -0.265000
2.574000 -0.126000 -0.257000
2.572000 -0.122000 -0.249000
2.594000 -0.119000 -0.244000
2.519000 -0.097000 -0.200000
2.551000 -0.094000 -0.195000
2.621000 -0.089000 -0.186000
2.571000 -0.146000 0.098000
2.558000 -0.153000 0.102000
2.552000 -0.159000 0.107000
2.567000 -0.167000 0.112000
2.650000 -0.132000 -0.007000
2.609000 -0.122000 -0.007000
2.587000 -0.112000 -0.006000
2.625000 -0.105000 -0.006000
2.622000 -0.100000 -0.100000
2.623000 -0.106000 -0.107000
2.663000 -0.120000 -0.121000
2.661000 -0.126000 -0.127000
2.567000 -0.133000 -0.134000
2.566000 -0.139000 -0.140000
2.605000 -0.081000 -0.485000
2.616000 -0.079000 -0.479000
2.627000 -0.078000 -0.472000
2.581000 -0.100000 0.029000
2.555000 -0.107000 0.031000
2.541000 -0.114000 0.033000
2.528000 -0.121000 0.035000
2.513000 -0.128000 0.037000
2.509000 -0.136000 0.039000
2.502000 -0.143000 0.041000
2.510000 -0.152000 0.043000
2.509000 -0.093000 -0.036000
2.596000 -0.087000 -0.172000
2.618000 -0.091000 -0.181000
2.523000 -0.099000 -0.197000
2.529000 -0.102000 -0.205000
2.585000 -0.122000 -0.248000
2.571000 -0.125000 -0.254000
2.572000 -0.129000 -0.261000
2.531000 -0.151000 -0.310000
2.523000 -0.153000 -0.317000
2.564000 -0.130000 0.110000
2.571000 -0.124000 0.104000
2.578000 -0.118000 0.099000
2.572000 -0.111000 0.093000
2.606000 -0.108000 -0.002000
2.617000 -0.125000 -0.003000
2.657000 -0.135000 -0.003000
2.624000 -0.138000 -0.111000
2.621000 -0.131000 -0.106000
2.622000 -0.124000 -0.101000
2.625000 -0.118000 -0.095000
2.620000 -0.111000 -0.090000
2.572000 -0.193000 0.080000
2.522000 -0.122000 0.049000
2.520000 -0.114000 0.046000
2.537000 -0.107000 0.043000
2.512000 -0.093000 -0.032000
2.524000 -0.101000 -0.035000
2.589000 -0.167000 -0.248000
2.559000 -0.107000 -0.164000
2.558000 -0.103000 -0.157000
2.609000 -0.095000 -0.146000
2.678000 -0.093000 -0.142000
2.570000 -0.111000 0.099000
2.578000 -0.118000 0.104000
2.568000 -0.123000 0.110000
2.563000 -0.129000 0.115000
2.612000 -0.116000 -0.089000
2.618000 -0.123000 -0.094000
2.616000 -0.130000 -0.100000
2.620000 -0.136000 -0.105000
2.614000 -0.143000 -0.110000
2.625000 -0.144000 -0.469000
2.632000 -0.141000 -0.462000
2.611000 -0.108000 -0.369000
2.601000 -0.105000 -0.360000
2.536000 -0.097000 -0.335000
2.536000 -0.095000 -0.327000
2.541000 -0.092000 -0.320000
2.533000 -0.106000 0.047000
2.522000 -0.113000 0.050000
2.522000 -0.120000 0.053000
2.568000 -0.192000 0.083000
2.519000 -0.123000 -0.029000
2.523000 -0.115000 -0.028000
2.504000 -0.107000 -0.026000
2.488000 -0.098000 -0.024000
2.681000 -0.096000 -0.140000
2.607000 -0.098000 -0.143000
2.582000 -0.102000 -0.149000
2.557000 -0.106000 -0.154000
2.562000 -0.111000 -0.162000
2.587000 -0.162000 -0.241000
2.587000 -0.166000 -0.248000
2.592000 -0.171000 -0.256000
2.594000 -0.085000 -0.299000
2.596000 -0.087000 -0.308000
2.577000 -0.088000 -0.314000
2.568000 -0.090000 -0.321000
2.540000 -0.093000 -0.334000
2.561000 -0.096000 -0.344000
2.601000 -0.099000 -0.358000
2.620000 -0.102000 -0.369000
2.618000 -0.104000 -0.377000
2.517000 -0.114000 -0.427000
2.502000 -0.115000 -0.433000
2.533000 -0.118000 -0.446000
2.589000 -0.123000 -0.464000
2.611000 -0.126000 -0.477000
2.560000 -0.176000 0.102000
2.555000 -0.168000 0.097000
2.566000 -0.162000 0.093000
2.489000 -0.092000 -0.019000
2.483000 -0.099000 -0.020000
2.524000 -0.117000 -0.024000
2.517000 -0.125000 -0.026000
2.512000 -0.133000 -0.028000
2.552000 -0.124000 -0.144000
2.668000 -0.113000 -0.131000
2.663000 -0.107000 -0.124000
2.621000 -0.094000 -0.110000
2.504000 -0.160000 0.034000
2.503000 -0.152000 0.032000
2.506000 -0.144000 0.030000
2.515000 -0.137000 0.028000
2.530000 -0.130000 0.027000
2.541000 -0.122000 0.025000
2.521000 -0.141000 -0.319000
2.533000 -0.138000 -0.313000
2.574000 -0.115000 -0.265000
2.574000 -0.112000 -0.258000
2.486000 -0.087000 -0.205000
2.494000 -0.084000 -0.198000
2.566000 -0.148000 0.097000
2.557000 -0.155000 0.101000
2.545000 -0.161000 0.105000
2.559000 -0.169000 0.110000
2.646000 -0.131000 -0.009000
2.592000 -0.120000 -0.008000
2.578000 -0.111000 -0.007000
2.618000 -0.094000 -0.096000
2.622000 -0.100000 -0.102000
2.628000 -0.106000 -0.109000
2.667000 -0.119000 -0.123000
2.566000 -0.132000 -0.136000
2.570000 -0.138000 -0.143000
2.610000 -0.075000 -0.486000
2.615000 -0.074000 -0.478000
2.582000 -0.102000 0.028000
2.544000 -0.117000 0.032000
2.528000 -0.124000 0.034000
2.512000 -0.131000 0.036000
2.510000 -0.139000 0.038000
2.500000 -0.146000 0.040000
2.507000 -0.154000 0.042000
2.522000 -0.098000 -0.039000
2.613000 -0.090000 -0.184000
2.538000 -0.094000 -0.194000
2.498000 -0.096000 -0.198000
2.607000 -0.118000 -0.246000
2.584000 -0.121000 -0.251000
2.570000 -0.123000 -0.257000
2.582000 -0.127000 -0.266000
2.521000 -0.147000 -0.313000
2.527000 -0.151000 -0.321000
2.567000 -0.136000 0.112000
2.569000 -0.129000 0.107000
2.572000 -0.123000 0.101000
2.577000 -0.117000 0.096000
2.609000 -0.101000 -0.003000
2.592000 -0.109000 -0.004000
2.565000 -0.116000 -0.004000
2.618000 -0.127000 -0.005000
2.653000 -0.137000 -0.005000
2.634000 -0.136000 -0.112000
2.621000 -0.128000 -0.106000
2.625000 -0.122000 -0.101000
2.623000 -0.115000 -0.096000
2.623000 -0.109000 -0.090000
2.569000 -0.193000 0.077000
2.516000 -0.121000 0.047000
2.524000 -0.113000 0.044000
2.542000 -0.106000 0.041000
2.519000 -0.093000 -0.034000
2.584000 -0.167000 -0.256000
2.586000 -0.162000 -0.249000
2.591000 -0.158000 -0.243000
2.553000 -0.104000 -0.164000
2.557000 -0.100000 -0.157000
2.626000 -0.093000 -0.147000
2.685000 -0.090000 -0.143000
2.579000 -0.114000 0.098000
2.571000 -0.120000 0.103000
2.567000 -0.126000 0.109000
2.562000 -0.132000 0.114000
2.566000 -0.155000 0.094000
2.557000 -0.162000 0.098000
2.550000 -0.168000 0.102000
2.562000 -0.176000 0.106000
2.596000 -0.124000 -0.013000
2.535000 -0.113000 -0.012000
2.558000 -0.106000 -0.011000
2.590000 -0.099000 -0.010000
2.619000 -0.093000 -0.102000
2.616000 -0.098000 -0.108000
2.634000 -0.104000 -0.115000
2.663000 -0.111000 -0.123000
2.657000 -0.117000 -0.129000
2.547000 -0.128000 -0.142000
2.532000 -0.120000 0.029000
2.531000 -0.128000 0.030000
2.514000 -0.135000 0.032000
2.503000 -0.142000 0.034000
2.500000 -0.150000 0.035000
2.505000 -0.158000 0.037000
2.513000 -0.167000 0.039000
2.492000 -0.087000 -0.196000
2.486000 -0.089000 -0.203000
2.592000 -0.109000 -0.251000
2.580000 -0.112000 -0.257000
2.577000 -0.115000 -0.265000
2.520000 -0.134000 -0.313000
2.518000 -0.137000 -0.320000
2.519000 -0.140000 -0.328000
2.561000 -0.144000 0.110000
2.563000 -0.137000 0.105000
2.569000 -0.131000 0.100000
2.575000 -0.125000 0.095000
2.527000 -0.109000 -0.008000
2.554000 -0.118000 -0.009000
2.616000 -0.130000 -0.009000
2.650000 -0.130000 -0.116000
2.641000 -0.123000 -0.110000
2.636000 -0.117000 -0.104000
2.629000 -0.110000 -0.098000
2.624000 -0.103000 -0.092000
2.518000 -0.134000 0.047000
2.515000 -0.127000 0.044000
2.521000 -0.119000 0.042000
2.532000 -0.112000 0.039000
2.543000 -0.105000 0.036000
2.584000 -0.156000 -0.258000
2.571000 -0.150000 -0.250000
2.580000 -0.146000 -0.244000
2.582000 -0.142000 -0.237000
2.615000 -0.117000 -0.197000
2.628000 -0.113000 -0.191000
2.557000 -0.097000 -0.164000
2.566000 -0.093000 -0.158000
2.573000 -0.126000 0.101000
2.564000 -0.132000 0.106000
2.557000 -0.138000 0.111000
2.558000 -0.145000 0.116000
2.623000 -0.122000 0.003000
2.649000 -0.114000 0.002000
2.649000 -0.106000 0.002000
2.623000 -0.109000 -0.092000
2.631000 -0.116000 -0.098000
2.636000 -0.123000 -0.104000
2.647000 -0.130000 -0.110000
2.662000 -0.137000 -0.116000
2.612000 -0.121000 -0.477000
2.530000 -0.113000 -0.446000
2.498000 -0.109000 -0.433000
2.509000 -0.107000 -0.427000
2.608000 -0.094000 -0.386000
2.620000 -0.092000 -0.379000
2.625000 -0.090000 -0.372000
2.568000 -0.083000 -0.347000
2.558000 -0.081000 -0.338000
2.563000 -0.079000 -0.331000
2.526000 -0.112000 0.043000
2.511000 -0.119000 0.046000
2.513000 -0.127000 0.048000
2.537000 -0.118000 -0.034000
2.531000 -0.110000 -0.032000
2.513000 -0.101000 -0.030000
2.493000 -0.092000 -0.027000
2.648000 -0.091000 -0.148000
2.557000 -0.096000 -0.157000
2.619000 -0.116000 -0.190000
2.602000 -0.120000 -0.196000
2.576000 -0.143000 -0.238000
2.573000 -0.147000 -0.245000
2.578000 -0.152000 -0.252000
2.583000 -0.156000 -0.260000
2.643000 -0.103000 0.005000
2.650000 -0.112000 0.006000
2.626000 -0.119000 0.006000
2.635000 -0.128000 0.007000
2.590000 -0.079000 -0.349000
2.593000 -0.081000 -0.358000
2.601000 -0.082000 -0.367000
2.622000 -0.085000 -0.379000
2.630000 -0.086000 -0.389000
2.625000 -0.088000 -0.396000
2.571000 -0.092000 -0.421000
2.519000 -0.093000 -0.429000
2.508000 -0.094000 -0.435000
2.606000 -0.101000 -0.478000
2.612000 -0.103000 -0.488000
2.574000 -0.184000 0.095000
2.557000 -0.176000 0.090000
2.566000 -0.169000 0.087000
2.646000 -0.106000 0.053000
2.491000 -0.096000 -0.025000
2.534000 -0.114000 -0.029000
2.526000 -0.121000 -0.031000
2.552000 -0.119000 -0.152000
2.660000 -0.102000 -0.132000
2.616000 -0.090000 -0.116000
2.509000 -0.166000 0.026000
2.516000 -0.158000 0.025000
2.514000 -0.150000 0.024000
2.532000 -0.127000 -0.330000
2.518000 -0.123000 -0.321000
2.520000 -0.120000 -0.314000
2.540000 -0.118000 -0.309000
2.575000 -0.100000 -0.266000
2.575000 -0.097000 -0.259000
2.594000 -0.095000 -0.253000
2.561000 -0.171000 0.092000
2.559000 -0.178000 0.096000
2.579000 -0.187000 0.100000
2.562000 -0.125000 -0.019000
2.499000 -0.106000 -0.016000
2.533000 -0.099000 -0.015000
2.618000 -0.091000 -0.111000
2.614000 -0.096000 -0.117000
2.663000 -0.109000 -0.133000
2.544000 -0.124000 -0.153000
2.517000 -0.141000 0.026000
2.516000 -0.149000 0.028000
2.514000 -0.157000 0.029000
2.505000 -0.165000 0.030000
2.569000 -0.089000 -0.235000
2.578000 -0.098000 -0.259000
2.576000 -0.101000 -0.267000
2.524000 -0.117000 -0.316000
2.530000 -0.120000 -0.325000
2.547000 -0.123000 -0.335000
2.566000 -0.158000 0.110000
2.554000 -0.151000 0.104000
2.564000 -0.145000 0.100000
2.572000 -0.138000 0.095000
2.524000 -0.097000 -0.012000
2.507000 -0.105000 -0.013000
2.508000 -0.113000 -0.014000
2.578000 -0.141000 -0.138000
2.663000 -0.121000 -0.119000
2.675000 -0.115000 -0.113000
2.629000 -0.101000 -0.100000
2.509000 -0.147000 0.044000
2.507000 -0.139000 0.041000
2.509000 -0.131000 0.039000
2.518000 -0.124000 0.037000
2.531000 -0.117000 0.034000
2.543000 -0.109000 0.032000
2.571000 -0.103000 0.030000
2.579000 -0.139000 -0.261000
2.569000 -0.135000 -0.252000
2.568000 -0.131000 -0.245000
2.587000 -0.127000 -0.240000
2.513000 -0.104000 -0.197000
2.548000 -0.101000 -0.193000
2.604000 -0.099000 -0.189000
2.623000 -0.096000 -0.183000
2.564000 -0.086000 -0.164000
2.572000 -0.135000 0.098000
2.566000 -0.142000 0.102000
2.552000 -0.148000 0.107000
2.558000 -0.155000 0.112000
2.648000 -0.134000 -0.003000
2.632000 -0.124000 -0.003000
2.621000 -0.115000 -0.003000
2.643000 -0.108000 -0.002000
2.631000 -0.099000 -0.002000
2.622000 -0.103000 -0.096000
2.673000 -0.117000 -0.110000
2.665000 -0.123000 -0.116000
2.667000 -0.129000 -0.122000
2.577000 -0.143000 -0.135000
2.611000 -0.097000 -0.485000
2.611000 -0.095000 -0.476000
2.601000 -0.093000 -0.466000
2.515000 -0.086000 -0.435000
2.517000 -0.084000 -0.427000
2.578000 -0.082000 -0.421000
2.628000 -0.077000 -0.404000
2.535000 -0.112000 0.036000
2.523000 -0.119000 0.039000
2.507000 -0.126000 0.041000
2.506000 -0.134000 0.043000
2.511000 -0.142000 0.046000
2.522000 -0.102000 -0.036000
2.508000 -0.094000 -0.033000
2.625000 -0.101000 -0.186000
2.516000 -0.105000 -0.193000
2.506000 -0.108000 -0.199000
2.574000 -0.130000 -0.242000
2.564000 -0.133000 -0.249000
2.576000 -0.137000 -0.257000
2.567000 -0.126000 0.114000
2.575000 -0.120000 0.109000
2.582000 -0.115000 0.103000
2.564000 -0.108000 0.097000
2.625000 -0.099000 0.000000
2.636000 -0.108000 0.000000
2.617000 -0.116000 0.000000
2.635000 -0.125000 0.000000
2.647000 -0.134000 0.000000
2.617000 -0.142000 -0.107000
2.617000 -0.135000 -0.102000
2.621000 -0.129000 -0.097000
2.620000 -0.122000 -0.092000
2.613000 -0.115000 -0.087000
2.541000 -0.072000 -0.442000
2.606000 -0.075000 -0.471000
2.610000 -0.076000 -0.480000
2.613000 -0.077000 -0.489000
2.567000 -0.192000 0.086000
2.565000 -0.184000 0.083000
2.529000 -0.114000 0.051000
2.527000 -0.107000 0.047000
2.502000 -0.092000 -0.029000
2.521000 -0.100000 -0.032000
2.567000 -0.114000 -0.162000
2.571000 -0.109000 -0.155000
